ply
format ascii 1.0
comment PCL generated
obj_info is_cyberware_data 0
obj_info is_mesh 0
obj_info is_warped 0
obj_info is_interlaced 0
obj_info num_cols 2048
obj_info num_rows 1
obj_info echo_rgb_offset_x 0
obj_info echo_rgb_offset_y 0
obj_info echo_rgb_offset_z 0
obj_info echo_rgb_frontfocus 0.0
obj_info echo_rgb_backfocus 0.0
obj_info echo_rgb_pixelsize 0.0
obj_info echo_rgb_centerpixel 0
obj_info echo_frames 1
obj_info echo_lgincr 0.0
element vertex 1611
property float x
property float y
property float z
end_header
-0.0160336 0.00320662 0.881338
-0.0115311 -0.00128132 0.879226
-0.0846528 0.0260546 0.90882
-0.234865 -0.00610593 0.976276
-0.0210438 0.0401121 0.92864
-0.100577 -0.0235637 0.865435
-0.177942 -0.0105596 0.927841
0.160125 -0.00565869 0.837445
-0.19391 0.0321395 0.996451
-0.0156671 -0.0188002 0.838239
-0.0563936 -0.0730478 0.877931
-0.0960854 -0.019098 0.864943
0.168135 0.0452234 1.16802
-0.00744683 0.0649772 0.984837
-0.0295351 0.00770494 0.883348
0.155755 -0.0611457 0.78626
-0.199027 -0.0434833 0.952018
0.0793682 -0.0615339 0.802677
0.0934211 0.0593954 1.12226
0.10511 -0.0485812 0.800484
-0.17053 0.046622 1.00369
-0.222199 -0.0491709 0.990635
0.0539065 -0.070629 0.815768
0.122926 -0.0315265 0.80906
0.0321443 -0.0531572 0.812437
0.0672582 0.0685033 0.824792
0.0668297 -0.0705409 0.813071
-0.214647 -0.00134851 0.966122
0.13459 0.00316208 0.850384
-0.117653 0.0309097 0.925506
-0.0936654 0.0704309 1.00293
-0.0700608 0.00771475 0.884675
-0.0118429 0.0401309 0.929619
0.0194788 -0.0760107 0.841667
0.115813 -0.0144079 0.83396
-0.0477464 0.0122603 0.892337
0.11354 -0.0656984 0.796821
-0.107187 0.0603972 0.987265
-0.0503534 0.0700792 0.994473
-0.00266612 0.0546442 0.954385
-0.0245897 -0.0674507 0.848261
-0.0916453 -0.0146436 0.865421
-0.146983 0.0563631 1.0105
-0.14999 0.0125115 0.925902
0.01046 0.0289181 0.804767
0.0973852 -0.0142734 0.817852
-0.207503 -0.0246537 0.943508
-0.00263673 0.0402042 0.93318
-0.0164404 0.0401116 0.928658
0.169394 -0.0227417 0.794999
0.0783908 0.0167108 0.883784
0.0061978 -0.0142553 0.818142
0.143198 0.0260596 0.90569
0.0321618 -0.0272145 0.814003
0.119192 0.0167622 0.887456
-0.145457 -0.0428186 0.926662
-0.122627 -0.0705749 0.930151
0.0606293 0.0450258 0.759712
-0.158155 -0.0104684 0.912783
-0.182541 0.0223415 0.977574
-0.0976981 0.0122984 0.896303
-0.239323 -0.0108432 0.97357
-0.0425084 -0.0678771 0.859626
-0.216383 0.0129132 0.981975
0.0648729 0.0122061 0.883454
0.169737 0.0123254 0.895403
-0.112233 0.0215449 0.911874
-0.133348 -0.0238544 0.886483
-0.0780798 -0.0368265 0.86074
0.142517 -0.0716264 0.836698
0.0453459 -0.0751492 0.820329
-0.148357 -0.0104216 0.90495
0.0543725 -0.00125022 0.83285
-0.0593669 0.0647618 0.97738
-0.0517809 -0.0728675 0.873426
-0.0111811 -0.0360254 0.821828
-0.151298 -0.0478217 0.94215
0.018856 0.00729918 0.784284
0.124664 0.0259895 0.901837
0.0193262 0.0467531 0.828199
-0.243218 -0.0344457 0.966142
0.0108458 -0.0816387 0.869801
-0.147778 -0.0285463 0.897328
-0.21261 -0.0634833 0.990488
-0.0514197 0.0812854 1.03634
-0.156606 0.026684 0.950573
0.0117055 0.0709087 1.01869
-0.113311 0.0659493 1.01136
-0.0159702 -0.00127771 0.873905
-0.0249524 0.003199 0.876773
-0.222787 -0.0341923 0.953894
-0.15903 -0.0427599 0.922929
-0.124428 -0.0329021 0.88825
-0.0805615 0.0353767 0.919932
0.035592 0.0325762 0.769146
-0.157529 -0.0286731 0.905026
0.0436344 0.0197267 0.753005
0.0366895 -0.0708791 0.82263
0.104937 -0.0656852 0.796982
-0.107561 0.0215229 0.910186
-0.0209305 0.0307406 0.918429
-0.051962 0.00769891 0.881385
-0.126797 0.0262971 0.924307
-0.212988 -0.0779499 0.993514
0.156539 -0.0720254 0.845858
-0.0393864 0.0400425 0.925003
-0.162372 0.0567104 1.02178
-0.239022 -0.0203051 0.971012
-0.0426817 -0.00127428 0.868451
-0.166181 0.051555 1.00922
0.145071 -0.0186184 0.814735
-0.178249 -0.0726007 0.981556
-0.142767 -0.0667597 0.95245
-0.197311 0.0521825 1.03106
-0.0627676 0.0495564 0.936909
-0.10064 -0.0191178 0.866643
-0.15265 -0.0240595 0.901327
0.102028 0.0214552 0.904464
-0.0244124 -0.0231605 0.836012
-0.0652715 0.00320012 0.876459
-0.0245586 -0.0629599 0.846075
0.110398 -0.0229614 0.817041
0.175492 -0.0057311 0.859751
0.0493973 -0.0401373 0.810479
-0.118259 -0.0753438 0.93422
0.0597727 0.0120837 0.864711
0.165745 0.00780951 0.901933
-0.102626 -0.0558789 0.90277
0.134721 -0.0655708 0.79185
-0.0214463 0.059639 0.965054
-0.00752111 0.0704087 1.00447
0.0279823 0.0509856 0.823319
0.116852 0.00316016 0.850462
0.0884276 -0.0185584 0.812502
-0.0202127 -0.0719906 0.851476
-0.217634 -0.0294334 0.950106
0.0410158 0.0553055 0.821916
-0.0289823 -0.0585869 0.847185
0.120719 -0.00566286 0.841816
0.0647099 0.00768973 0.878745
0.0643996 0.0363795 0.748086
-0.198006 -0.0729097 0.98819
-0.217734 -0.0588069 0.993527
0.133505 -0.0100374 0.83544
-0.08952 0.0307209 0.915224
0.00616958 0.0246782 0.809751
-0.00265345 0.049743 0.945221
-0.168039 -0.0381172 0.920312
-0.0374314 -0.0405501 0.829397
0.0234812 -0.0617829 0.811571
0.172721 0.0347272 1.16045
-0.0288958 -0.0188455 0.842504
0.0826638 0.00769204 0.878606
0.143379 -0.0570352 0.79276
0.0751895 -0.035754 0.806573
0.111351 -0.0143968 0.832816
0.0712539 -0.0185926 0.8166
0.0879671 0.0304099 0.895866
-0.222905 0.02261 0.997443
0.152099 -0.039909 0.794417
0.00198401 0.0449713 0.939732
-0.0201813 -0.0145054 0.849934
-0.187354 -0.0198216 0.929101
0.0751535 -0.0443614 0.805516
-0.0119234 0.0496747 0.942515
0.0579878 -0.0444196 0.808521
0.0627035 -0.0142818 0.820453
-0.129687 0.0457216 0.96783
0.178459 0.00323763 0.891202
0.143691 -0.0399534 0.797118
0.155954 -0.0526551 0.788815
0.0104531 -0.0012299 0.80382
-0.153583 -0.072133 0.970764
-0.0246474 -0.010112 0.853805
-0.190157 0.00804726 0.95805
-0.114482 -0.0281573 0.873647
-0.0247629 -0.0768086 0.860936
-0.0745091 -0.0597413 0.88234
0.00185791 -0.04459 0.81639
0.153699 -0.0186145 0.813645
-0.029821 0.0168556 0.901524
-0.0157035 -0.062802 0.841541
0.136127 0.055217 1.15499
-0.0551922 -0.0363798 0.838956
-0.130838 0.077411 1.05932
-0.182827 -0.0677964 0.97964
-0.145397 0.0171213 0.926258
0.0448553 0.00737415 0.802154
0.0408383 -0.0272271 0.814666
-0.238036 -0.0390926 0.962593
-0.238445 -0.0297082 0.96613
0.105178 0.0121915 0.879373
0.0838172 -0.0357562 0.806306
-0.0748569 0.012264 0.892039
-0.0415654 0.0810362 1.03032
0.0665382 -0.0529887 0.805751
0.0632964 0.0777028 0.83608
-0.120345 0.00323714 0.895497
0.139149 0.017 0.912994
0.0790083 0.0304451 0.898455
0.135673 0.035592 0.928553
-0.175416 0.0126894 0.951326
-0.177205 -0.0335178 0.919596
0.100683 -0.0657092 0.797884
0.0440414 0.0410255 0.768992
-0.115068 -0.00578919 0.883434
-0.114833 -0.0102708 0.879574
-0.179195 -0.043197 0.940966
-0.0481498 0.0260287 0.908188
-0.209845 0.0372178 1.01071
-0.202068 -0.0292024 0.936301
-0.049122 0.0544309 0.946138
-0.0933942 0.0168693 0.901003
0.0713416 -0.014272 0.818874
-0.0923081 0.0599789 0.974216
0.110401 0.0303601 0.891577
0.112521 0.00316254 0.85213
-0.0346031 0.0306859 0.914815
-0.089823 0.0354154 0.921627
-0.125684 0.0123817 0.907556
-0.226124 0.00816602 0.983447
-0.124301 -0.0103123 0.886589
-0.18464 -0.0876292 0.998525
-0.101721 0.00322046 0.886786
0.133029 0.0168035 0.891209
-0.151765 -0.0526319 0.948025
-0.0447858 0.0594873 0.959659
0.0356709 0.03688 0.772983
-0.131987 -0.0521692 0.932247
0.138308 -0.0717182 0.839389
-0.138213 -0.0193926 0.891183
-0.18769 0.0522041 1.03282
-0.102249 0.0602834 0.98377
-0.107191 0.0168993 0.90367
-0.169465 0.00795363 0.936976
-0.11005 -0.0147243 0.874737
0.0503729 0.0736602 0.84522
0.0762273 -0.00562505 0.831858
0.120968 -0.00126108 0.845618
0.0780893 0.00320122 0.876612
0.101254 -0.0704031 0.807923
0.063155 0.073155 0.832158
0.0496945 0.0552836 0.820977
-0.196037 0.0128205 0.969704
0.0358751 0.0413468 0.783041
-0.107427 -0.0560137 0.907108
-0.0688951 -0.0366658 0.85297
0.0794262 -0.0486509 0.804388
-0.161275 -0.0480324 0.949961
0.105481 -0.0271558 0.807299
0.0105398 -0.01426 0.818724
0.0209746 0.0602096 0.983863
0.032554 0.0600924 0.835348
-0.0647943 -0.0412954 0.862284
0.0835693 0.0213846 0.89908
-0.14845 -0.0719263 0.965476
-0.150068 0.0673676 1.05239
-0.00250983 -0.0715068 0.839142
0.156041 -0.0483974 0.789936
0.131203 -0.0357558 0.803461
0.0234944 -0.035859 0.813294
0.0965141 -0.0528855 0.800871
-0.0698728 -0.0596199 0.878688
-0.150095 -0.0428298 0.926813
0.0115958 0.0654721 0.999934
-0.0761658 0.04006 0.924743
0.0364914 -0.027215 0.813953
0.00696195 0.0765659 1.04094
-0.0242644 -0.0447923 0.824473
-0.093081 -0.0375036 0.894331
-0.0550695 0.0700209 0.992687
-0.038532 -0.082181 0.881858
-0.0211776 0.04963 0.94069
-0.00685233 -0.0056064 0.827353
-0.0430176 0.00770517 0.883143
-0.0840116 -0.0646329 0.893435
-0.18237 -0.0581622 0.974997
-0.0555191 0.0753879 1.00878
-0.102953 0.0654705 0.997268
0.0708259 -0.0529716 0.805005
0.0747327 0.0259998 0.905214
0.00687027 0.0707514 1.01424
0.0982219 0.0399581 0.918836
0.0921844 -0.0614714 0.800231
-0.192803 -0.0679814 0.984143
-0.0111936 -0.0317134 0.823949
-0.195222 0.00806347 0.961534
-0.0742786 0.0701914 0.996921
-0.0112133 -0.0230487 0.827279
0.0105429 -0.0186053 0.819216
0.0672223 -0.00996118 0.825074
-0.0337483 -0.07703 0.866161
0.0436933 0.0113733 0.755447
-0.168183 -0.0676116 0.975499
-0.144957 -0.082011 0.981863
0.071695 -0.00997758 0.827914
-0.0646484 0.07009 0.99437
0.0188984 0.0286518 0.788081
0.0148411 -0.0618277 0.812976
0.147459 -0.0612438 0.78985
-0.218104 -0.0201121 0.954444
-0.0930266 0.0651983 0.989433
0.064521 -0.0817598 0.871493
0.0235189 -0.0315645 0.815265
-0.207718 0.0225144 0.990538
-0.0885305 -0.0510628 0.893608
-0.182849 0.057079 1.03326
-0.0963863 -0.0102177 0.870854
0.156319 -0.0398931 0.793332
0.0839895 -0.0228578 0.810231
-0.0111664 -0.0490019 0.819132
0.167556 0.0398965 1.16065
-0.21353 -0.0107311 0.955859
-0.136325 -0.0428393 0.928267
0.0917733 0.0166924 0.881104
0.0924474 0.0349221 0.894674
-0.020403 -0.00127529 0.870314
0.0374863 0.0743229 0.862137
0.112011 -0.00125942 0.843744
-0.162528 0.0268936 0.965519
0.0886609 0.0260852 0.910887
-0.0839409 0.0122721 0.892902
0.130751 0.0551194 1.1515
-0.130022 -0.0377333 0.903801
-0.235486 0.00340099 0.981502
0.00626169 -0.0757475 0.83538
-0.181782 0.0175293 0.969397
-0.134992 0.00783199 0.909872
-0.207528 -0.0633826 0.987831
0.127674 -0.0229501 0.815005
0.109563 -0.0357201 0.803099
-0.0209819 0.0354053 0.923062
-0.229681 -0.0060935 0.972809
0.0395949 0.0071996 0.759595
0.014855 -0.0272339 0.815521
-0.183912 -0.043217 0.94143
0.023159 0.0329094 0.787452
-0.0387301 0.0122652 0.893296
-0.116214 0.0554286 0.979033
-0.0374721 -0.0362231 0.831479
0.0585313 -0.00996456 0.825994
0.0736873 0.00769098 0.878721
0.0976607 0.0169349 0.90821
0.023607 -0.0229861 0.822194
-0.0887182 0.0703005 0.999441
0.148031 -0.0356637 0.797487
-0.0428485 -0.0773677 0.87416
0.0861552 -0.00126754 0.857055
-0.0697902 0.00320202 0.877409
-0.224065 -0.0107891 0.965372
-0.162368 -0.0287251 0.908095
0.0160613 0.0548702 0.962406
0.128713 -0.0143826 0.82987
-0.105233 -0.0236095 0.868813
-0.200547 0.042105 1.01462
-0.187554 0.0223766 0.980234
-0.134659 0.00325524 0.905179
0.106436 0.0214277 0.901776
-0.0743109 0.00320378 0.878273
-0.193208 -0.0385695 0.940932
0.00185791 -0.0619245 0.815875
-0.00682637 -0.0359904 0.820081
0.0198907 -0.0821059 0.880426
-0.0111715 -0.0446811 0.82007
-0.139412 0.00326008 0.907684
-0.080089 0.0260519 0.908817
0.162926 -0.0143217 0.819331
0.0931588 -0.0751598 0.818767
0.0396861 0.0282625 0.763437
0.0872099 0.0121879 0.879749
-0.0619728 0.0306641 0.912762
-0.190011 -0.0482423 0.955963
-0.15152 0.0266084 0.945415
0.0278564 -0.0272377 0.815623
-0.232968 -0.0390285 0.959936
-0.233824 -0.0202623 0.967421
-0.212805 0.0225501 0.993194
-0.0379609 -0.0632601 0.854652
0.00619291 -0.00557388 0.816755
0.0411647 0.0598705 0.828394
0.114418 -0.0272302 0.811722
0.0985656 0.0543696 1.12386
0.026631 0.0770742 1.05433
-0.204431 -0.00134305 0.959163
-0.155341 0.0172047 0.934917
-0.159143 0.0366059 0.982016
-0.121661 0.0215989 0.916109
-0.053128 0.0400119 0.923202
0.0584115 -0.0142946 0.822227
0.0543118 0.0642965 0.829674
-0.152093 -0.057418 0.952102
0.0314455 0.0326549 0.773501
-0.171306 0.0516546 1.0127
-0.0465027 -0.0232532 0.842936
0.171007 -0.0186149 0.812135
-0.148458 -0.00586616 0.906262
-0.0878965 0.00320896 0.880728
-0.0979589 0.0653203 0.992926
-0.0212885 0.0545451 0.950727
0.155854 -0.0569031 0.787538
-0.198985 0.0321897 0.999105
-0.0915236 -0.032426 0.86272
0.129485 -0.00566184 0.840889
0.096458 -0.0657559 0.799399
-0.00711998 0.0122977 0.898697
-0.0838081 -0.05094 0.889261
0.0840223 -0.0704383 0.809712
-0.157062 -0.0575314 0.95559
-0.120762 0.0772576 1.05584
-0.164877 0.0416041 0.993686
0.0312882 0.0156447 0.764859
-0.230781 0.00340134 0.982262
-0.126428 0.0216323 0.918774
0.0521255 0.0323567 0.756807
-0.016639 0.0545687 0.951614
-0.172915 -0.0105337 0.923524
0.0975631 0.0214727 0.906257
-0.0388635 0.0168416 0.89978
0.176347 -0.0143543 0.822268
-0.152421 -0.0622242 0.956177
-0.144684 0.00786347 0.91688
-0.214428 0.0371803 1.00818
-0.172438 -0.0334818 0.917953
0.0118715 0.0767992 1.04713
0.139117 0.00316462 0.851547
-0.166698 -0.0529455 0.958489
-0.0885186 -0.0555787 0.893228
-0.0418992 -0.0362717 0.83384
0.143612 0.016988 0.911301
0.0146742 0.00305709 0.793616
0.126497 -0.0528456 0.797652
0.0886502 -0.014264 0.817103
0.0934298 -0.00560832 0.825604
0.130956 -0.0443015 0.799883
-0.210252 0.0421231 1.01451
-0.0959463 -0.0279692 0.862131
-0.101467 -0.00128511 0.882083
0.0408859 0.0507955 0.816274
0.0825746 0.00320151 0.876591
0.0604634 0.0407125 0.754997
-0.0383536 0.00319624 0.874925
-0.106267 0.0551707 0.970352
-0.0994885 0.0402054 0.930677
0.0846885 0.0400565 0.924219
-0.137733 0.061329 1.01616
0.126326 -0.0613622 0.794948
-0.128585 -0.0238062 0.882978
-0.194449 -0.0435014 0.953301
0.0813042 0.0574016 0.751554
-0.150935 0.0218672 0.937949
-0.154007 -0.0770619 0.976029
0.0105138 -0.0315407 0.814019
0.0693372 0.0122008 0.882483
-0.17256 -0.0580349 0.97152
-0.213243 -0.0388455 0.952873
0.0600769 -0.0817953 0.872455
0.117789 -0.0656753 0.795913
0.0146879 0.0287631 0.795066
-0.192153 -0.0535281 0.977889
-0.00713823 0.0168714 0.903529
0.0290883 -0.0827176 0.89432
0.147271 -0.00126016 0.842355
-0.185034 0.00802772 0.953742
-0.00726226 0.0448888 0.936161
-0.13551 -0.0820236 0.982839
0.0063734 -0.0815564 0.867935
-0.0588535 0.0595218 0.960426
-0.00247855 -0.0532773 0.816815
0.152246 0.0554689 1.16379
-0.107408 -0.0423311 0.907125
-0.131595 0.0559435 0.996526
-0.0330944 -0.049326 0.830898
-0.154544 -0.0820761 0.98272
-0.13746 -0.066448 0.943668
-0.0823775 -0.023453 0.857539
-0.177169 -0.0289117 0.919276
-0.156193 0.0514253 1.00493
0.0321426 -0.0574796 0.81221
-0.133648 0.0407913 0.956851
0.0279299 -0.0229652 0.820474
-0.158358 -0.0334092 0.914979
-0.211914 -0.0489907 0.984372
-0.0335293 -0.0676796 0.854396
-0.0112366 -0.0187272 0.831127
-0.052342 -0.0826973 0.893355
0.117926 -0.0528515 0.798434
0.0539375 -0.0229419 0.818041
-0.191942 0.0175993 0.976366
0.14765 0.0260427 0.90411
-0.219743 0.0372691 1.01246
0.11168 -0.00565029 0.838282
-0.0323738 0.0872454 1.06254
-0.154692 0.0414254 0.985884
0.0666083 -0.0400943 0.807987
-0.038489 0.00769818 0.881531
0.0412396 -0.0755913 0.831143
0.00185508 0.00742097 0.814156
-0.0199163 -0.0360964 0.825343
-0.0885859 -0.0601468 0.894529
-0.173924 -0.0822874 0.986256
-0.0115707 0.00321395 0.885673
0.0105172 -0.0272208 0.814675
-0.0731348 0.0597199 0.966477
-0.158732 -0.00131342 0.919791
-0.108112 0.0657082 1.00427
0.179853 0.0123993 0.905941
0.0364092 -0.0660205 0.808865
0.10023 0.00766448 0.871005
-0.188988 -0.00133308 0.946027
-0.0890349 0.0214536 0.904968
0.125428 0.0352998 0.913338
-0.0796499 0.0168411 0.898455
-0.0303121 0.0448066 0.932394
-0.179537 0.0369103 0.996873
0.00618964 -0.0229019 0.81566
-0.0936747 0.0214752 0.906668
0.168485 -0.0482912 0.784849
0.0188404 0.0115475 0.782789
-0.235321 -0.00135959 0.98012
-0.0863377 0.0821281 1.0563
0.098348 -0.00125354 0.83588
-0.00682373 -0.0446589 0.819185
-0.124937 0.0768065 1.04355
-0.126939 -0.0519908 0.92595
-0.138171 -0.0239101 0.890558
0.172982 -0.0697726 0.786185
-0.134386 -0.00129959 0.901321
-0.119558 -0.0102915 0.883082
0.0708839 -0.0443866 0.806715
-0.186853 0.0175643 0.972883
-0.0437235 0.0306728 0.913812
-0.0659861 0.016823 0.896932
0.0282799 0.0603223 0.842441
-0.210028 0.00337208 0.967307
-0.203437 -0.0779394 0.99424
0.13413 -0.00126064 0.844058
-0.0477498 -0.0825766 0.890709
-0.228248 -0.0248939 0.960354
0.0843397 -0.0142684 0.817867
-0.19201 -0.0290791 0.929065
-0.203319 0.0273371 0.994412
-0.132156 0.0310792 0.935168
0.157514 -0.0228833 0.807345
-0.185811 0.0127639 0.961917
0.0364853 -0.0401954 0.813407
-0.140519 0.0170872 0.922757
-0.104948 0.0764676 1.03563
-0.102595 -0.051316 0.902312
-0.168848 -0.0773775 0.982962
0.124408 0.0304743 0.897851
0.12539 -0.00126127 0.8456
0.0234684 0.0419938 0.811155
-0.0747015 -0.0689083 0.886893
0.126982 -0.0357795 0.804965
-0.0242494 -0.0491159 0.823238
-0.112142 0.0605113 0.990758
-0.0878886 -0.0372194 0.880193
0.00187055 -0.0667082 0.828077
0.0148809 -0.0142612 0.818835
-0.18912 0.05751 1.04817
-0.110458 -0.00578317 0.881744
0.00211675 0.0825394 1.06842
-0.208406 0.0273802 0.997067
0.0408412 -0.0358917 0.81464
-0.202965 -0.0153331 0.945049
0.154195 -0.0143173 0.819537
0.0647176 0.0491422 0.756412
-0.20247 -0.0585232 0.985412
-0.0478878 0.0168268 0.897907
-0.0870987 -0.0146276 0.863603
0.0439216 0.0367028 0.764275
-0.00269191 0.0598813 0.973152
-0.0115105 -0.0818259 0.874084
-0.102764 -0.0605068 0.905182
-0.112906 -0.0702628 0.922175
-0.177208 -0.0243179 0.919771
-0.168717 -0.00131987 0.928441
-0.0516396 -0.0682086 0.868483
-0.130173 0.00781632 0.906367
-0.0985253 0.02611 0.912222
0.100194 0.0267292 0.957608
0.0164144 0.0656475 1.00526
-0.131267 0.0216752 0.922277
0.127735 -0.0777061 0.87851
-0.206946 0.0176728 0.98319
0.0506723 0.012036 0.857627
0.0628343 -0.00995599 0.82428
-0.133622 0.0665006 1.02699
-0.120046 -0.00129178 0.8908
-0.20644 0.0471839 1.02467
-0.124555 -0.00581251 0.890448
-0.199146 -0.0829191 0.999267
-0.0391715 0.0306849 0.914667
-0.153034 -0.0671749 0.963884
-0.15846 -0.0380187 0.916125
0.0395691 0.0197858 0.758353
-0.212564 -0.0586937 0.990203
0.0564376 0.0408306 0.760231
-0.167288 -0.0242085 0.911957
0.0397056 0.00300817 0.764527
0.118629 0.0121914 0.878564
0.179887 0.0508091 1.18414
0.134589 0.0215777 0.913352
-0.209187 -0.0436594 0.958945
-0.108461 0.0355129 0.925969
0.113817 -0.0400133 0.801966
-0.0334111 -0.0542092 0.848294
-0.184492 0.0369484 0.998497
-0.132904 -0.0711433 0.945083
-0.139143 0.0668283 1.03665
-0.0891499 -0.0741914 0.906109
-0.020575 0.00771558 0.886068
0.0756938 0.040158 0.929476
-0.11716 -0.0471504 0.917114
-0.213396 0.0274091 0.998668
0.126701 -0.0443161 0.800782
0.168803 -0.0355234 0.788528
0.14127 -0.0143279 0.821946
-0.17143 -0.0482713 0.958863
0.0753211 -0.027172 0.809885
-0.122294 -0.065781 0.925084
-0.120944 0.0123625 0.904892
0.00205995 0.0707175 1.01328
0.0366821 0.0553294 0.822796
-0.177924 -0.0382723 0.927296
-0.124808 -0.00129438 0.894307
0.0771308 0.0532233 0.752071
0.149082 -0.0229134 0.810456
0.0453318 -0.0142841 0.821257
0.0321301 -0.0358373 0.812066
-0.125553 0.0506544 0.976883
-0.093226 -0.0511592 0.896966
0.0653112 0.0580572 0.772265
-0.0649144 -0.00572897 0.866187
0.048024 0.0324184 0.760277
0.135307 -0.0400114 0.800397
0.136372 0.0604783 1.15875
-0.164345 0.0367116 0.987348
0.0582901 -0.0186062 0.8184
0.0880987 -0.0357443 0.805501
0.118193 -0.0400387 0.802834
0.0322892 0.0509138 0.820681
0.0643918 0.0405485 0.747782
0.0728329 0.0573175 0.749355
0.0105232 -0.0488973 0.815252
-0.125373 0.0078007 0.902861
0.0365669 0.0508188 0.817202
0.157099 -0.0271405 0.802525
-0.205601 0.00810369 0.970361
-0.195174 0.0419837 1.00929
0.0493072 -0.0616301 0.80657
-0.0424361 -0.058899 0.856768
-0.197143 -0.0245191 0.93386
-0.0761327 -0.0840037 0.922492
-0.147979 -0.0194903 0.900026
-0.0161036 0.00772961 0.88954
0.0622328 -0.0616172 0.805791
0.0838378 -0.031449 0.80683
0.105519 0.0708535 1.16178
-0.109957 -0.0853176 0.950995
-0.217844 -0.0636241 0.994388
0.0454058 -0.00995306 0.824259
0.0322124 -0.0142486 0.817006
0.114984 0.0303783 0.892439
0.139651 -0.0357151 0.800763
-0.00247864 -0.0359354 0.81731
0.031503 -0.00545285 0.777038
0.027232 0.0284423 0.774897
0.149415 -0.0186201 0.814554
0.0519344 0.0238806 0.750501
-0.0609958 -0.0731893 0.881428
0.0931283 0.0214992 0.908831
-0.060001 -0.0189507 0.852045
0.150087 0.00770483 0.877562
0.0540439 -0.0186384 0.821677
-0.116413 0.082569 1.06588
-0.0791306 -0.0508324 0.885464
0.00191417 -0.0861162 0.869976
0.0888531 -0.0751921 0.819766
-0.200067 -0.0484169 0.962109
-0.11223 -0.0470024 0.911368
0.138729 0.0306372 0.907047
-0.181929 0.0519446 1.02316
0.05375 -0.0358365 0.81151
-0.0867493 0.0547294 0.95551
-0.139779 0.0720269 1.04579
-0.122022 -0.0518551 0.92122
-0.0812471 0.0819468 1.05196
0.123298 -0.0777371 0.879561
-0.230033 -0.00135627 0.975845
-0.102589 0.0168895 0.902822
-0.0596368 -0.0364138 0.840539
-0.143294 -0.014927 0.898418
-0.0621304 0.0353202 0.917549
-0.0939086 0.0260953 0.911372
0.0436402 0.0155445 0.75328
-0.139203 -0.00130221 0.904827
0.00197819 0.0402243 0.934147
0.154803 0.00771658 0.880061
0.011926 0.0820592 1.05635
-0.154046 0.0365193 0.977695
-0.20953 -0.00134577 0.962644
-0.152972 -0.0149876 0.905422
0.0146407 0.00732042 0.789516
-0.0289698 -0.0144853 0.847261
-0.0522167 0.0122497 0.890585
-0.21259 -0.0247058 0.947117
-0.0363884 0.0755089 1.01245
-0.0331336 -0.0318833 0.833453
-0.184337 0.00333222 0.94639
0.079457 -0.0400463 0.8053
0.0353983 0.0156001 0.759746
-0.0931433 -0.0465857 0.8954
-0.149396 0.0412719 0.978887
-0.0869913 0.0876978 1.07166
-0.133367 -0.0283711 0.886685
0.0396567 0.0240356 0.762191
-0.0156747 -0.0583001 0.838302
-0.17409 0.00331402 0.936615
-0.118569 0.0404281 0.940329
-0.115354 -0.00128977 0.888132
-0.183619 -0.0823815 0.987671
-0.119743 -0.0328531 0.885729
0.0316473 0.0773454 1.06148
-0.012091 0.0597733 0.96956
-0.119241 -0.0192451 0.878022
0.0105121 -0.0358635 0.813643
0.00618858 -0.0618758 0.814438
0.126341 0.00762431 0.85958
-0.0418361 -0.0405874 0.830985
-0.178716 -0.00132579 0.936252
-0.163386 -0.00591269 0.920262
-0.110733 -0.00128843 0.886444
-0.0980224 -0.060388 0.901681
-0.109442 -0.0802772 0.942067
-0.192121 -0.0244673 0.930244
-0.10766 -0.0652704 0.91096
0.0836692 -0.0529201 0.802694
-0.202724 -0.0681324 0.987606
-0.169054 0.00330593 0.932296
0.0593386 0.00757634 0.85119
-0.128731 -0.0193244 0.885168
-0.0558316 -0.0101527 0.860593
-0.12511 0.00324343 0.898885
0.0923654 -0.0400394 0.804372
-0.00247948 -0.044623 0.817732
-0.174977 0.0626074 1.05555
0.0625256 -0.0705699 0.813971
-0.082435 -0.0190294 0.858885
0.0104029 0.0116269 0.79512
0.091659 0.00769461 0.878819
-0.212015 0.017701 0.985848
-0.116618 0.0169491 0.908749
-0.0310435 0.0647771 0.978496
-0.0982365 0.0214778 0.906673
-0.21851 0.0274525 1.00132
0.172836 -0.0397559 0.7856
-0.117259 0.0262183 0.919126
-0.167983 -0.0105123 0.920027
0.174028 0.0077741 0.892501
-0.123426 0.0662243 1.01918
-0.0155617 -0.0317443 0.825694
-0.163509 0.0317905 0.977316
-0.109807 -0.0236342 0.870508
0.0104272 0.0245343 0.799176
-0.15446 0.00789561 0.924
0.17369 0.0453229 1.17238
0.0773795 0.0659884 0.757292
-0.153333 -0.0333105 0.909691
-0.110804 -0.032872 0.887364
-0.184703 -0.0480761 0.94967
0.122664 -0.0357767 0.805123
-0.105389 0.050045 0.954192
-0.112555 0.0261897 0.917307
0.0456339 0.0643812 0.832322
-0.141584 -0.0476732 0.936817
-0.0072229 0.0354549 0.925856
-0.00247828 -0.0272581 0.817191
0.15812 -0.0186256 0.814347
-0.1335 -0.0193636 0.888676
-0.167724 -0.0627088 0.970262
-0.119177 -0.0237225 0.876952
0.0450034 -0.0616433 0.807071
0.17239 -0.0567298 0.780527
-0.068947 -0.0189803 0.854632
0.00185645 -0.0272297 0.815301
-0.0641779 0.064853 0.980016
0.122082 -0.061383 0.795853
0.160944 0.016893 0.899168
-0.0887054 -0.0647595 0.896936
-0.0111741 -0.0403472 0.820592
-0.117726 -0.0704006 0.92567
-0.173287 0.0571274 1.03584
0.0188559 0.02433 0.784126
-0.172255 0.0222323 0.96875
0.0519311 0.0280576 0.750326
0.0493279 -0.0530268 0.8076
0.032136 -0.0617916 0.811695
0.0541657 0.0597672 0.824899
-0.197447 -0.0199112 0.936898
-0.0732173 -0.0277783 0.850427
-0.0451782 0.0647267 0.976683
-0.128541 0.0663761 1.02351
-0.143476 -0.0717858 0.961987
-0.164841 0.0125932 0.937335
-0.0561172 -0.00127567 0.870141
0.0113076 0.049882 0.950625
-0.0715335 0.0400386 0.923892
-0.0617913 0.026021 0.907229
-0.129325 -0.00582423 0.893955
-0.0887732 0.0168532 0.899416
-0.130495 0.0124065 0.911061
-0.087457 -0.00574751 0.871318
-0.0198817 -0.0447299 0.821983
0.0971356 -0.0185696 0.813153
0.0273571 -0.00547176 0.783271
0.106902 0.0260864 0.910039
0.0230632 0.0285252 0.78013
-0.00715933 0.0214769 0.909111
0.00185779 -0.0489209 0.816159
0.113124 0.00763091 0.862047
0.0232154 -0.00549867 0.792101
-0.11559 0.00323067 0.891991
0.183923 0.0348963 1.17013
-0.0442635 0.0495473 0.937066
0.182558 -0.00129226 0.8865
0.0104215 0.00735643 0.798349
-0.121168 0.0555344 0.982526
-0.135659 0.0170532 0.919256
-0.160474 0.0464803 0.998389
-0.00248455 0.00310536 0.821995
-0.222653 -0.0588495 0.994444
0.0480872 0.0366685 0.762514
0.143738 0.0215804 0.912928
0.147807 0.0215084 0.906197
0.142965 -0.00126096 0.843868
-0.142969 -0.0284904 0.893957
-0.00281079 0.0821877 1.0596
-0.0118134 0.0354378 0.924906
0.0061856 -0.0272166 0.814416
-0.0206031 -0.0868896 0.886659
0.185571 0.012478 0.917593
-0.117171 -0.0563215 0.91705
-0.0433966 0.0168416 0.899675
0.159282 -0.0100068 0.827748
-0.106556 0.00775352 0.892456
-0.0290054 -0.0630453 0.848514
-0.117466 -0.0656518 0.921588
0.135407 0.0446742 1.14385
-0.223031 -0.0389273 0.955942
-0.0688056 -0.0233608 0.850777
0.00200013 0.0546685 0.955254
0.0708947 -0.0400781 0.807093
-0.015929 -0.00573454 0.869063
-0.0584693 0.0544835 0.947763
-0.0440931 0.0447508 0.929719
-0.1164 -0.0377373 0.904882
-0.132077 -0.0614533 0.933291
0.139232 -0.0527939 0.794941
-0.187602 -0.0630687 0.97987
0.0450043 -0.0573309 0.807248
0.00185888 -0.00123947 0.817884
-0.108057 -0.0700948 0.917844
-0.168967 -0.0429529 0.930823
0.161193 -0.0271056 0.799828
-0.218851 -0.0107633 0.961208
-0.138159 -0.0284306 0.890321
0.0967167 -0.0314311 0.805155
-0.044513 0.0544759 0.947857
0.0234785 -0.0531299 0.811639
-0.0243238 -0.0318072 0.829212
0.0748812 0.0351686 0.908853
-0.197408 -0.0631823 0.982516
-0.108144 0.0308195 0.920426
-0.0771808 0.0877958 1.07437
0.0496146 -0.0229491 0.818742
0.00186081 -0.00558307 0.819762
-0.182431 -0.019787 0.926174
-0.167592 -0.0579446 0.968857
-0.0808038 -0.0840864 0.924197
0.102423 -0.00562377 0.830165
-0.113716 0.0403494 0.936828
0.027825 -0.031535 0.813505
-0.104567 -0.0847263 0.937729
-0.0395036 0.0447696 0.930629
-0.0931197 0.0122914 0.895451
-0.00770609 0.0819409 1.05341
-0.0569496 0.0168282 0.897805
0.120507 0.0351963 0.908022
0.00185677 -0.0229019 0.815674
0.0478253 0.0155449 0.753224
0.148072 0.0169764 0.909652
-0.0537693 0.0544326 0.946077
0.0189582 0.033023 0.793674
-0.183089 -0.0105913 0.93319
0.0395455 0.0113851 0.757377
0.122237 -0.0528594 0.798415
-0.166259 -0.048128 0.953451
-0.0915907 0.0548333 0.959009
-0.127286 0.031018 0.931667
-0.153629 0.0619177 1.03446
0.168309 -0.0525143 0.782872
-0.102639 -0.0422418 0.90335
0.113744 -0.0442929 0.800701
0.164568 -0.0398182 0.789203
-0.0302231 0.0400768 0.926818
-0.21344 -0.0829094 0.997556
-0.0553139 -0.0408596 0.842916
-0.084231 0.0168514 0.89941
-0.0342113 0.0122648 0.893333
0.0836502 -0.0658223 0.801859
-0.0422579 -0.0145076 0.849842
-0.183452 -0.00596948 0.937043
0.122044 -0.0656574 0.795139
-0.0961681 -0.0324934 0.866364
-0.0981047 -0.0649861 0.903127
0.168178 -0.0610125 0.781211
-0.173669 -0.00132254 0.931936
0.161619 -0.00126929 0.854594
-0.00720172 0.0307688 0.920289
0.103943 0.0545315 1.12994
0.173097 -0.0269535 0.78853
-0.0206836 0.0122808 0.895999
-0.0798891 0.0214394 0.90411
0.0450064 -0.0659609 0.807038
-0.0578901 0.0447357 0.928703
-0.0423648 -0.0101179 0.854553
-0.0405097 0.064808 0.97927
-0.140828 0.0510612 0.991801
0.0278931 0.0464855 0.817623
-0.0935374 -0.069516 0.902724
-0.0286252 -0.0491564 0.82468
-0.0115241 -0.0863997 0.876098
0.0880305 -0.0443363 0.803911
0.0940921 -0.0012552 0.838554
-0.114075 0.0712333 1.02475
-0.0474708 0.00769864 0.881439
-0.233257 -0.0296454 0.962532
-0.0660743 0.0813681 1.03799
-0.0376476 -0.023217 0.84027
0.130829 -0.0485603 0.79802
-0.126961 -0.0566062 0.926156
-0.0555231 -0.0189309 0.850245
-0.0644854 -0.0189698 0.853766
-0.0794033 -0.0690793 0.89139
-0.110705 0.0819951 1.05179
-0.0986721 0.0705916 1.00727
0.136527 -0.0186345 0.816979
0.157251 0.0261283 0.909636
-0.0872776 -0.0101967 0.86746
-0.217347 -0.0443708 0.990354
0.0188886 0.00304655 0.787388
-0.0698175 -0.046124 0.87758
-0.220304 0.00338575 0.974256
-0.138903 0.0409636 0.96479
-0.243218 -0.039173 0.966053
-0.214187 0.0323248 1.00601
0.156419 -0.0657029 0.793723
0.0550805 0.0120307 0.856676
0.121768 0.00761584 0.85781
-0.204642 0.0371444 1.00724
0.00185743 -0.0575765 0.81555
-0.0744837 -0.050733 0.881961
0.0104002 0.0159063 0.794619
-0.217587 -0.0341082 0.94961
0.12318 -0.0272557 0.812857
-0.173323 -0.00593925 0.928081
-0.149383 -0.0771107 0.977642
-0.0421369 0.0870626 1.05804
0.0501964 0.00313758 0.840214
-0.0888201 -0.0693802 0.899227
-0.152783 0.031525 0.961556
-0.0507303 -0.0363276 0.836445
-0.00248405 -0.00124202 0.821626
0.137773 -0.0100293 0.83364
-0.197336 -0.0584068 0.981941
-0.196589 0.0471399 1.02374
0.0687343 0.0531999 0.751647
0.125059 0.0215094 0.907916
-0.0511855 -0.0145359 0.85323
0.0460939 0.0738648 0.850461
-0.19337 0.0272769 0.990962
-0.0740872 -0.00127779 0.872621
0.0709347 -0.0357828 0.808202
-0.0377282 -0.0188651 0.844258
-0.0259561 0.0545683 0.951498
-0.0619101 0.0872237 1.06135
-0.0208263 0.0214768 0.909003
0.0649032 0.053489 0.761327
-0.12205 -0.0564615 0.921531
-0.0167629 0.0596666 0.96601
-0.0720883 0.0496078 0.938598
-0.0652926 -0.0595335 0.876125
-0.22547 0.00339262 0.977726
-0.111003 0.00322856 0.891026
-0.177589 -0.0151493 0.923987
-0.0112039 -0.0578767 0.824984
-0.238959 -0.0155633 0.970536
0.12801 -0.0186573 0.819835
-0.112608 -0.0654944 0.917256
-0.122435 0.030957 0.928166
-0.0874302 0.0598663 0.970722
0.0879207 0.0349202 0.894788
-0.212545 -0.0539126 0.990157
0.0879661 -0.0529163 0.802361
0.100775 -0.0528659 0.799967
-0.130632 -0.081935 0.981013
-0.0378966 -0.0543143 0.851793
-0.197266 -0.0536348 0.981365
-0.0345168 0.0260508 0.910103
0.0236854 0.0511057 0.827677
0.0278891 -0.014255 0.8179
-0.0744794 -0.055224 0.881727
-0.0513385 -0.0101422 0.858797
-0.135915 0.0725722 1.06161
-0.143618 -0.00585431 0.90276
-0.213317 -0.0154105 0.95388
-0.0784782 0.0649526 0.982546
-0.0655022 0.00770756 0.883079
-0.203102 -0.03869 0.946044
-0.13669 -0.047579 0.933322
-0.0782399 -0.0101805 0.864891
0.014843 -0.0358693 0.813906
-0.102428 -0.0376158 0.899532
-0.150358 0.017163 0.93059
-0.193808 -0.082679 0.993948
0.139547 -0.0399952 0.79934
0.0106051 -0.0711006 0.828665
-0.0979857 0.0168788 0.901852
-0.0261033 0.059561 0.962429
-0.0868634 -0.0323462 0.858345
-0.0614552 0.0168219 0.896956
-0.182157 -0.0335862 0.923088
0.0406994 -0.0616594 0.807645
-0.0383351 -0.0772923 0.872431
0.14083 -0.0186302 0.816228
0.00618601 -0.0358778 0.814387
0.0579275 -0.0616239 0.806132
-0.161854 -0.0528904 0.956843
-0.0654672 -0.0686749 0.880835
-0.099689 0.0761638 1.02778
-0.0635357 0.0595239 0.960351
-0.0252165 -0.087259 0.894626
-0.0334567 -0.0587002 0.850682
-0.0885071 0.012279 0.893756
0.110713 -0.0186707 0.822282
-0.157518 -0.0241101 0.904958
0.023035 0.0242474 0.778015
-0.117169 -0.0517373 0.91714
-0.120556 -0.0376157 0.898462
-0.0963609 0.0548869 0.9607
0.0537073 -0.0444497 0.809879
-0.097891 -0.0557691 0.89927
-0.0711603 0.0816196 1.04413
0.0581787 -0.0272364 0.814816
-0.194105 -0.00133635 0.950332
-0.0121744 0.064918 0.983006
-0.136519 0.0264014 0.931308
-0.0346897 0.0353439 0.919526
0.0841601 -0.0185712 0.813956
-0.0829443 -0.00574425 0.870459
-0.0389598 0.0214287 0.904442
-0.0607198 -0.0639143 0.87324
-0.0254971 0.0307265 0.917493
0.0334979 -0.0779295 0.887964
-0.0657559 0.0122509 0.890349
-0.00684621 -0.0186708 0.825632
-0.10289 0.0214996 0.908368
-0.23866 -0.0250047 0.967969
0.173237 0.0400178 1.16681
0.0191625 -0.0531546 0.81253
-0.0157761 -0.0719212 0.849734
-0.0687311 -0.02775 0.848711
-0.128649 -0.0760254 0.951125
-0.0921405 0.0878902 1.07599
-0.148124 -0.0149573 0.90192
-0.209046 -0.00604163 0.958099
-0.118384 0.0661005 1.01569
-0.126616 -0.0426699 0.921268
-0.0201475 -0.067354 0.845665
-0.182727 -0.0151948 0.929335
0.0148853 -0.0186068 0.819329
0.0327479 0.0692622 0.845971
-0.0623389 0.040032 0.923893
0.00615989 0.00739199 0.807063
-0.20803 -0.0153644 0.948531
-0.00682083 -0.057656 0.818047
-0.0791574 -0.0598582 0.885841
0.0399147 0.0411241 0.773345
-0.122907 0.0357044 0.935527
-0.0599079 0.0701152 0.995235
-0.0301336 0.0353733 0.921203
-0.111935 -0.0377646 0.906537
0.0147067 -0.00122568 0.797592
0.0105202 -0.0532137 0.814618
0.0235988 0.046573 0.821106
0.0189938 -0.00551456 0.797332
-0.155877 0.021912 0.941554
0.156654 0.0169191 0.902482
-0.0844417 0.0214416 0.904115
-0.0499423 0.0647849 0.978348
0.114268 0.0495112 1.13249
-0.0616358 0.0214135 0.902486
-0.192661 0.022421 0.983716
0.0665925 -0.0444008 0.807459
0.0212391 0.0657627 1.00873
0.0192567 -0.022984 0.82208
-0.0203408 -0.005721 0.864609
0.00185716 -0.0402394 0.815759
-0.203072 -0.0730248 0.990848
-0.102236 0.0122999 0.896307
-0.0948274 0.040183 0.929833
-0.0780792 -0.0146044 0.861032
-0.0330311 -0.0405086 0.827609
-0.217808 -0.0731861 0.993737
-0.0338786 0.00319616 0.874961
0.00185799 -0.0185815 0.816913
-0.218515 -0.0154484 0.95817
-0.114252 -0.0803981 0.944725
0.0365921 -0.0186073 0.819069
-0.10549 -0.0326215 0.873244
-0.0292892 -0.00127358 0.867682
-0.11337 -0.0751645 0.929893
-0.0693829 0.0700626 0.993428
-0.0919747 -0.0057508 0.872175
-0.15911 0.00329102 0.924358
0.0837076 -0.048636 0.803643
0.0313762 0.0283596 0.769663
-0.0520797 0.0872515 1.06228
-0.0646182 -0.0145736 0.857622
-0.147008 0.0312924 0.947437
-0.148813 -0.00130679 0.910829
-0.0299104 0.0214576 0.907174
-0.0922525 -0.00128189 0.877839
-0.1194 -0.0807388 0.952686
-0.0519993 -0.0776656 0.88115
0.0287419 -0.0772654 0.87195
-0.179319 0.0033253 0.942784
-0.174927 0.0417317 0.99899
-0.0459615 0.0754476 1.01061
-0.0997457 -0.0845632 0.934243
-0.0553229 -0.0276646 0.843462
-0.0469779 -0.0057142 0.86191
0.0554619 0.016577 0.869498
-0.219069 -0.00606047 0.963182
-0.166549 0.0220986 0.957317
-0.18004 0.0418111 1.00237
0.0546151 0.00313917 0.841023
-0.0464643 -0.0452087 0.841009
0.0625549 -0.0229202 0.816048
-0.198328 0.0273054 0.992576
-0.12738 -0.0660349 0.932215
0.0496789 -0.0142845 0.821191
-0.0172244 0.0757694 1.01965
-0.143154 -0.0194508 0.896521
-0.0357521 0.0647501 0.977591
-0.0382033 -0.00127362 0.867581
-0.107828 0.0261531 0.914884
-0.222758 -0.0294957 0.953711
-0.0463546 -0.0319489 0.836938
-0.0426888 -0.0726225 0.867351
-0.234411 -0.0108339 0.972431
0.0839273 -0.0271618 0.808829
0.0630239 -0.00561721 0.829803
0.0272921 0.03275 0.778737
-0.202543 -0.0633081 0.985985
0.129275 0.0305543 0.902531
0.0446107 0.00305576 0.792339
-0.0113006 -0.0671601 0.840427
-0.0514381 -0.0501682 0.861756
-0.192419 -0.0198693 0.933283
0.0192397 -0.014275 0.820557
-0.179762 0.00800059 0.947574
-0.153383 -0.0058806 0.910592
-0.163927 -0.0772903 0.981125
-0.0263312 0.0648051 0.979419
-0.201893 0.0176448 0.980533
0.0607372 0.0493148 0.76273
-0.0575503 0.035318 0.917573
-0.163495 -0.0723554 0.976084
0.16502 -0.00567626 0.842761
0.0493169 -0.0573287 0.807064
-0.110233 -0.0102601 0.877885
0.0891115 -0.00561073 0.826607
-0.096189 -0.0146577 0.866994
-0.223154 0.0274364 0.999615
0.178432 0.0348357 1.16678
0.109225 -0.0656835 0.796681
0.0105188 -0.057536 0.814243
-0.14504 0.0124811 0.921569
0.0409149 -0.0185991 0.818179
-0.129588 -0.00129698 0.897814
0.0019715 0.0354885 0.927693
-0.0157671 -0.0145057 0.85002
0.0278071 -0.0358397 0.812258
-0.0255493 0.0353746 0.92134
0.0622445 -0.0530034 0.806405
-0.0367784 0.0811724 1.03383
-0.0434661 0.0214099 0.902669
-0.0163186 0.0261088 0.914601
0.0922626 -0.0486071 0.802152
-0.152671 -0.0286149 0.901526
-0.107274 -0.037726 0.904847
-0.0299852 0.026074 0.911887
0.120358 0.0602027 1.14982
-0.0605936 -0.0503911 0.869757
0.0630759 0.0686941 0.830031
0.0420359 0.0834144 0.866225
0.120733 0.065544 1.15637
0.053652 -0.0530358 0.807785
0.162573 0.0451161 1.16327
-0.0379296 -0.058785 0.853271
0.0230057 0.0199788 0.775809
0.0758464 -0.00995 0.822686
-0.0973177 0.00773714 0.888945
0.100696 -0.0614202 0.79827
-0.105208 -0.0280692 0.86831
-0.00687233 0.00312361 0.83269
0.0708449 -0.0486742 0.805612
-0.0706471 -0.0784204 0.898844
-0.192301 -0.0583148 0.979282
0.00698812 0.0817418 1.04842
-0.0599736 -0.0410384 0.850843
-0.0252838 0.0168559 0.901625
-0.00682217 -0.0489885 0.818658
-0.0836559 0.00772447 0.886499
0.0738035 0.0121966 0.881661
-0.0435946 0.0260279 0.90824
-0.0779546 -0.0190186 0.858022
-0.210727 0.00812005 0.97384
-0.154904 0.0125374 0.929514
-0.0286363 -0.0448192 0.825501
-0.238151 -0.0343916 0.963627
-0.158466 -0.0722138 0.9726
0.0354031 0.0114017 0.760016
0.115603 0.0214446 0.902741
0.1274 -0.0705431 0.809881
0.154786 -0.00999818 0.82655
0.0188184 0.0157833 0.780673
0.0106759 -0.0759679 0.8407
-0.0938841 -0.0743361 0.909606
0.0701757 0.025996 0.90511
0.0622589 -0.0487015 0.806943
0.00199162 0.0497899 0.947056
-0.176685 0.0518232 1.01886
0.10496 -0.0614033 0.79753
-0.0469792 -0.0634797 0.860888
0.00619048 -0.0445685 0.815505
0.0751247 -0.0486547 0.804715
0.0996915 0.00317631 0.860957
-0.0616815 -0.0830957 0.902204
0.0399152 -0.00120975 0.773847
-0.024374 -0.0274985 0.833062
-0.0570923 0.0214122 0.902516
-0.174678 0.00798066 0.943146
0.174205 0.0123216 0.894409
-0.0204844 0.00320062 0.877777
-0.0510271 -0.0453585 0.846994
-0.20114 0.0128462 0.973183
0.14754 -0.0569894 0.790971
-0.0562843 0.00319834 0.875707
-0.162745 -0.0150506 0.912674
0.0966591 -0.0357234 0.804
-0.01997 -0.0274582 0.830423
-0.226789 0.017745 0.989218
-0.0963807 0.0823184 1.06063
-0.12136 0.0169753 0.911413
0.156437 -0.0356245 0.794786
-0.0200926 -0.058385 0.840938
-0.203885 0.0322102 0.999893
0.0369007 -0.0756618 0.832942
-0.0970748 0.00321571 0.884242
-0.158471 0.0317266 0.973725
0.0148425 -0.0661596 0.812983
0.0312853 0.0114317 0.764729
0.0322017 0.0464423 0.815864
-0.0848217 -0.0789528 0.911176
-0.0510801 -0.0189207 0.849374
-0.108549 -0.0750181 0.926399
0.0820415 0.0457371 0.97106
-0.185103 0.0418756 1.00502
-0.217188 0.0177365 0.98932
0.143502 0.0306847 0.909671
-0.158857 0.062063 1.03886
0.0665167 -0.0615918 0.804894
-0.160126 0.0674774 1.055
-0.0112706 -0.0144011 0.836705
-0.179802 -0.0480102 0.947433
-0.138721 -0.0330874 0.897942
0.0451679 -0.0358884 0.814373
-0.206199 0.0422781 1.02242
-0.0710789 0.0306542 0.911832
-0.149841 -0.082094 0.983517
0.0927125 -0.0185504 0.811502
-0.187049 -0.0336406 0.925761
-0.0576942 0.0399955 0.92228
0.0625186 -0.0272404 0.814935
0.0582214 -0.0229204 0.816209
0.0602369 0.0322104 0.748597
-0.133843 -0.010354 0.893603
-0.178877 0.0320081 0.989621
0.0925938 -0.0703845 0.807909
-0.109947 -0.0191876 0.872952
0.0319773 0.041815 0.803313
-0.0777224 -0.0322342 0.852305
-0.189006 -0.0433227 0.945732
0.0414444 0.0690638 0.840507
0.17298 -0.0312201 0.787254
0.106996 -0.00563465 0.833453
-0.158414 -0.00589819 0.915936
0.130662 -0.0570905 0.795478
-0.111286 0.00776847 0.895845
0.120413 -0.0100416 0.837123
-0.205248 -0.0485347 0.966399
-0.0703078 0.0122581 0.891294
-0.101277 0.0550151 0.965044
0.131907 -0.0229331 0.813353
-0.157849 -0.0150191 0.909049
0.109492 -0.0400044 0.801835
0.0750905 -0.0572483 0.803641
0.110265 0.0167746 0.889403
0.0370008 0.0645859 0.838345
0.129219 -0.0100447 0.83709
-0.202329 -0.0537236 0.984167
-0.0959394 -0.0235181 0.862059
0.032125 -0.0401554 0.811687
-0.0508722 -0.0276367 0.841735
-0.0904402 0.0449021 0.934639
-0.0914009 -0.0234938 0.860355
0.113652 -0.0528607 0.799024
0.122306 -0.0485852 0.799547
-0.0778664 0.0597485 0.967238
-0.0838005 -0.0419105 0.889312
0.0105411 -0.0099213 0.818969
0.117382 0.00761894 0.858853
-0.148498 0.0363167 0.967088
0.0407836 -0.0444908 0.811893
-0.156872 -0.0527858 0.953352
0.0987894 0.0595778 1.12855
0.102303 -0.00998608 0.828018
0.131462 -0.031503 0.807105
0.0105341 -0.0229272 0.81765
0.12661 -0.0485884 0.799369
0.105246 -0.0357154 0.803118
0.0499862 0.0643522 0.831382
-0.0485355 0.0400101 0.923237
0.0781736 0.00769132 0.878623
-0.0158508 -0.0766963 0.858312
0.0191653 -0.0488361 0.812909
-0.0731946 -0.0321872 0.849782
-0.0421017 -0.0232516 0.842916
-0.0717789 0.0447856 0.930391
0.0317323 -0.0097644 0.789953
-0.064353 -0.0233479 0.84991
-0.0665132 0.0306529 0.911912
0.0954689 0.0267143 0.956747
-0.0660761 -0.0783779 0.897976
-0.223224 -0.0201533 0.95792
-0.06127 0.0122559 0.891276
-0.056631 -0.077857 0.885656
-0.0424188 -0.0544448 0.856146
-0.0733339 -0.0233965 0.853434
-0.0699676 -0.0641927 0.881089
-0.229235 -0.0108118 0.968963
0.0397717 0.0325414 0.767167
0.139012 -0.0655764 0.791679
0.0407358 -0.0487581 0.809657
-0.123832 -0.0237564 0.87934
0.062452 -0.03154 0.812933
0.122746 -0.0703533 0.805307
-0.0814648 0.0496826 0.941152
-0.0833991 0.0032086 0.880721
0.110033 -0.0272149 0.810977
0.0735652 0.00319922 0.875621
-0.0749472 -0.0736556 0.892929
-0.0401592 0.0595641 0.962293
-0.0606675 -0.0593906 0.871774
-0.207453 -0.0585921 0.987259
-0.0650779 -0.00127639 0.870896
-0.11918 0.0713955 1.02909
0.0671199 -0.0142973 0.822265
-0.163036 -0.0334315 0.915872
0.156545 0.03972 1.15186
-0.00683078 -0.0273215 0.821409
-0.193178 -0.010639 0.940991
-0.188179 -0.0775414 0.985455
0.0796413 -0.0271724 0.809727
0.0799936 -0.014267 0.817882
0.101418 0.0348972 0.892861
-0.172224 -0.0288508 0.915651
-0.0569984 -0.0828927 0.897698
0.160487 -0.0398654 0.791711
0.0364695 -0.0488298 0.812411
0.117778 -0.0613749 0.795902
-0.139195 -0.0767026 0.967863
-0.173007 -0.0676535 0.976316
0.153621 0.00319066 0.865728
-0.00247847 -0.0315966 0.817261
0.0505695 0.0827906 0.852047
-0.0560893 -0.0592751 0.868272
-0.213948 -0.00604815 0.959707
0.084478 -0.0751665 0.819352
0.0496112 -0.0272887 0.81856
0.152382 -0.0721444 0.849275
-0.226658 0.01296 0.988101
0.0321347 -0.0661125 0.811469
0.139143 -0.0570534 0.793667
0.104974 0.0653495 1.15078
0.0565376 0.0451127 0.763247
-0.00248355 -0.00558766 0.821257
-0.0111674 -0.0533471 0.819162
0.059044 0.00314109 0.842012
0.114126 -0.0314813 0.807031
-0.0288227 -0.0231838 0.837793
0.104508 0.00765081 0.867422
-0.188659 -0.0825099 0.990326
-0.194552 0.037048 1.00298
-0.130528 0.0507542 0.980472
0.101532 -0.0185824 0.814161
0.0234791 -0.0574546 0.811556
0.0066481 0.0498568 0.949662
0.0364677 0.0463554 0.812385
-0.0466203 -0.0189018 0.847647
0.00615234 0.0116896 0.804824
-0.0897779 -0.0838839 0.919157
-0.0712375 -0.0836476 0.914519
0.0537199 -0.0401384 0.810406
-0.0694054 -0.00573211 0.867052
-0.0468379 -0.0101282 0.856343
0.152762 0.0124168 0.911005
-0.176479 0.0174697 0.963121
-0.0684049 0.0596892 0.965637
0.132373 0.0122191 0.881924
0.125281 0.0549729 1.14609
-0.188157 0.0272102 0.986549
-0.0651476 0.0754293 1.0096
-0.145059 0.0461302 0.984425
-0.218858 -0.0390157 0.960914
-0.0802893 0.0306872 0.913523
0.0600924 0.0166239 0.874649
0.0450115 -0.0530254 0.807668
0.0685581 0.0405455 0.747494
-0.0606022 -0.0459335 0.870137
0.0558264 -0.0776333 0.880256
0.103719 0.049336 1.12547
-0.0736716 0.0648882 0.980762
-0.0978742 -0.0466844 0.899188
-0.177451 -0.0580954 0.973155
0.05894 0.0733547 0.837307
-0.135994 0.0216977 0.923947
-0.153222 -0.0104434 0.908577
-0.219784 -0.00135125 0.969597
0.0272673 -0.00121203 0.777422
0.00618939 -0.0575536 0.814819
0.139411 -0.0442583 0.797482
-0.0535364 0.0495714 0.937772
0.0600925 -0.0773447 0.873129
-0.227917 -0.0342625 0.957366
-0.217084 -0.049089 0.98784
-0.114459 0.0452728 0.949382
0.0536282 -0.061639 0.806708
0.168255 -0.0567691 0.782167
0.0713264 0.063887 0.817422
-0.0554327 -0.0233098 0.847182
-0.192551 -0.0631419 0.981713
-0.0947226 -0.0842049 0.926281
-0.167549 -0.0196593 0.91499
-0.230818 0.00816466 0.982572
0.0437312 0.0239641 0.756844
-0.0162703 0.0214763 0.908997
-0.105258 -0.0191476 0.869311
0.0067998 0.0652684 0.993736
0.143471 -0.0527771 0.794032
0.00185768 -0.0532513 0.81593
0.0280213 -0.0186815 0.826475
-0.140069 -0.0819212 0.980034
0.13576 0.0499295 1.14931
0.109185 0.0546106 1.13278
-0.0352267 0.0544972 0.948811
-0.134759 0.0458492 0.973002
0.0271986 0.0241768 0.772779
0.135899 -0.0272044 0.808514
0.102089 0.0169142 0.905637
0.0321384 -0.0315207 0.812614
-0.00253634 -0.0766968 0.858391
-0.159828 0.0125625 0.933011
0.0146329 0.0158524 0.788512
0.0964591 -0.0571561 0.799713
0.0450955 -0.0401546 0.811373
0.0236041 -0.0186353 0.822021
-0.168786 0.0318959 0.983479
0.0410201 -0.0142961 0.82289
0.14242 -0.00565232 0.836821
-0.0562612 0.0812545 1.03544
0.168903 -0.0312549 0.789658
-0.109443 0.0451235 0.94322
-0.0381559 -0.0724827 0.863854
0.115288 0.0349945 0.897364
-0.178686 -0.0822961 0.986045
0.16911 -0.0269985 0.791928
0.144081 -0.0314342 0.802173
0.0371884 0.0693231 0.84751
-0.0556632 -0.0145504 0.854954
-0.16771 -0.0150868 0.916871
-0.132027 -0.0568075 0.932697
0.0921885 -0.0571725 0.800453
-0.153565 -0.0379392 0.912491
-0.0344306 0.0214384 0.905391
-0.168387 -0.07243 0.977724
0.0493053 -0.0659397 0.806345
0.127811 0.0122123 0.881196
-0.178296 -0.00595167 0.931695
-0.153692 -0.00130951 0.914448
0.101147 -0.0271502 0.807175
-0.175652 0.0467126 1.00717
-0.0287633 -0.0275127 0.833942
-0.00249689 -0.066772 0.829826
-0.0744722 -0.0462315 0.881785
0.15226 -0.0356494 0.796408
-0.127675 0.0611232 1.01003
-0.121842 -0.0426042 0.918603
0.0587863 0.0687883 0.832686
0.0579611 -0.05303 0.807455
0.0104033 0.0201946 0.795102
-0.158807 -0.0771014 0.976668
0.152522 0.0169645 0.907959
-0.135325 0.0124313 0.914564
-0.129852 0.00324871 0.901672
0.027819 -0.0661359 0.812182
-0.170902 0.017379 0.953342
-0.00249952 0.0162454 0.832903
0.0449791 -0.00554604 0.807134
-0.191307 0.0470291 1.01945
0.00185746 -0.0359122 0.816139
0.182815 -0.00582303 0.88915
-0.0431088 -0.0823378 0.885351
0.0969342 0.0349095 0.893768
0.0410042 -0.0708141 0.820865
-0.187847 -0.0679026 0.982298
-0.227822 -0.0389485 0.956471
0.0148502 -0.0445473 0.814592
0.127201 -0.031516 0.808157
-0.0482704 0.0306599 0.912899
0.178447 0.00776991 0.89106
-0.0163995 0.0354207 0.923945
-0.106332 0.00322377 0.88848
0.10673 -0.00999219 0.828887
0.0230528 0.00303328 0.779554
0.0929963 -0.0142656 0.817088
0.00619023 -0.0532301 0.815197
-0.0156112 -0.0231041 0.831638
0.0795085 -0.0357574 0.806559
-0.142875 0.0614707 1.02048
-0.224423 -0.00607861 0.96853
-0.0611257 0.0812597 1.03543
-0.00683247 -0.0229809 0.821919
-0.197591 0.0224434 0.985226
0.110943 0.0214217 0.900985
0.11421 -0.070407 0.807253
-0.105586 -0.0102441 0.875217
-0.130875 0.0170267 0.916591
0.0546537 0.0734913 0.840864
0.0888397 -0.00994411 0.821018
0.0689335 -0.0772269 0.869968
-0.212529 -0.0293712 0.946498
0.145488 0.00769859 0.876395
0.0148454 -0.0402041 0.814106
0.0234834 -0.044492 0.812247
-0.00702445 -0.0817112 0.87148
-0.00685416 -0.00124627 0.827849
0.143597 -0.0442264 0.795847
0.0407104 -0.0530441 0.808406
0.0882122 -0.0271521 0.807977
0.0560731 0.0280402 0.749108
0.0146416 0.0244024 0.789474
-0.137103 0.031154 0.939505
0.0845261 -0.00994788 0.821914
-0.202647 0.0224788 0.987882
-0.193128 -0.0776253 0.987147
-0.105803 -0.00577418 0.879076
-0.155403 0.0463905 0.994905
0.151152 -0.00565112 0.83573
-0.0480078 0.0214105 0.902618
0.102685 -0.00125301 0.834864
-0.208233 -0.0779522 0.994076
-0.0473284 0.00319809 0.875807
-0.169895 0.0416677 0.996337
-0.086866 -0.0234681 0.858534
-0.0951988 0.0449689 0.937291
-0.136741 0.0560999 1.00179
-0.0792184 -0.0644116 0.887145
0.126407 -0.0571049 0.796239
-0.162699 -0.0625854 0.96678
0.157847 0.0556227 1.16942
0.151791 -0.0526926 0.790454
-0.0839001 0.0702638 0.998603
-0.128546 -0.0283011 0.882346
0.0323907 0.0554325 0.826275
-0.0528376 0.0306612 0.912858
-0.208424 -0.0828122 0.995718
0.0482156 0.0409847 0.767125
0.139222 0.0215881 0.913953
0.0745446 0.0304725 0.90035
-0.0695801 -0.00127709 0.87176
-0.0819257 0.0546258 0.95201
0.0407048 -0.0573524 0.808026
-0.0915262 0.0823785 1.06235
-0.0420151 -0.0275933 0.839062
0.105751 -0.0228944 0.811994
0.146565 0.0501163 1.15668
0.0354473 0.00721004 0.762236
