ply
format ascii 1.0
comment PCL generated
obj_info is_cyberware_data 0
obj_info is_mesh 0
obj_info is_warped 0
obj_info is_interlaced 0
obj_info num_cols 2048
obj_info num_rows 1
obj_info echo_rgb_offset_x 0
obj_info echo_rgb_offset_y 0
obj_info echo_rgb_offset_z 0
obj_info echo_rgb_frontfocus 0.0
obj_info echo_rgb_backfocus 0.0
obj_info echo_rgb_pixelsize 0.0
obj_info echo_rgb_centerpixel 0
obj_info echo_frames 1
obj_info echo_lgincr 0.0
element vertex 1619
property float x
property float y
property float z
end_header
-0.193165 -0.0194794 0.894889
-0.159636 -0.0147632 0.876142
-0.209027 -0.0530203 0.957218
-0.0780376 -0.00126937 0.860098
-0.12652 0.0446051 0.919773
-0.179967 0.0360422 0.949482
0.0914856 0.0211199 0.875161
-0.0417753 -0.0318002 0.828495
-0.0823033 -0.0500254 0.85534
-0.042407 -0.0765705 0.854848
0.102645 -0.00125251 0.834142
0.159839 -0.023221 0.834021
0.0364481 -0.0488012 0.811348
-0.135682 -0.0234793 0.856499
0.04449 0.0585031 0.786534
0.177679 0.0676401 1.22172
-0.123763 0.00770052 0.878425
0.149695 0.0617225 1.20247
-0.0404247 0.0646721 0.975116
-0.027258 0.101305 1.04768
0.0142822 -0.00952172 0.745681
0.109259 0.0166216 0.872164
0.0797049 -0.0185418 0.811282
-0.0379854 -0.0765872 0.855349
-0.251157 -0.00134326 0.954029
0.026736 0.0154479 0.742721
-0.0468013 -0.0765126 0.853339
0.111767 0.00314136 0.839724
0.0591075 0.0967686 1.16474
0.0581007 -0.0228729 0.812442
-0.218893 -0.0289841 0.919819
-0.249651 0.0176844 0.979582
0.122929 -0.0272002 0.809165
-0.105678 -0.0640687 0.875777
-0.0125455 0.0912722 1.04251
-0.0219929 0.0851981 1.01426
-0.192389 0.0218526 0.932968
-0.0670471 0.107246 1.06686
0.00608151 0.0285827 0.783855
0.13554 -0.0357647 0.803594
-0.045992 -0.0403993 0.822395
0.070998 -0.0271706 0.809968
0.134281 0.00757169 0.846127
0.073691 0.0802547 1.13801
0.102348 -0.00999048 0.828823
0.0624547 -0.07049 0.811916
0.0769432 0.00757026 0.849054
-0.239321 -0.0677562 0.97242
0.145024 0.00767403 0.870408
-0.0175374 0.0967707 1.05552
-0.0378793 -0.0145213 0.851687
-0.211746 0.0126365 0.939509
0.073588 0.0648478 1.13554
-0.0307635 0.0548339 0.960928
0.0451917 -0.0142399 0.815628
0.0483107 0.0410656 0.770612
-0.143899 -0.0651617 0.905377
0.16282 -0.0460262 0.867811
0.139103 0.0215696 0.912313
0.144858 -0.0359408 0.811805
-0.00744384 0.0649512 0.984042
-0.16892 -0.019294 0.879006
-0.0418364 -0.027476 0.831243
-0.222866 0.0513728 0.996558
-0.139119 0.0260256 0.903494
-0.0509971 0.0902578 1.0192
-0.0982599 0.0351527 0.906924
-0.0153109 -0.014086 0.796491
0.147724 0.0214963 0.905124
-0.0467682 -0.0101131 0.853581
-0.033306 -0.071625 0.841883
0.111209 0.0396906 0.905244
-0.0838015 0.0844822 0.9957
-0.13881 -0.0421958 0.898975
-0.203949 -0.0104787 0.910338
-0.175232 0.0705785 1.00167
0.0321038 -0.0271654 0.810729
0.0234532 0.0765115 0.808851
-0.265091 -0.0248434 0.951677
-0.2598 -0.0341596 0.947418
0.0936085 -0.00124875 0.829104
0.0843295 0.0806649 1.14856
-0.0917912 -0.0682182 0.867203
-0.0580662 0.04949 0.934459
0.0511439 -0.00117599 0.724016
0.0537944 -0.0272095 0.813158
-0.147762 0.0595532 0.956773
0.12282 -0.0314991 0.807488
0.0666713 -0.0314894 0.809869
0.120901 0.0075616 0.844577
-0.206728 0.0715612 1.02678
-0.200456 0.00790089 0.921052
0.0930467 0.0442595 0.906766
0.0307442 -0.00118263 0.734241
-0.140208 0.0399983 0.918162
-0.139755 0.0352944 0.912051
-0.19964 -0.00131157 0.913244
-0.0636692 -0.0274697 0.830192
-0.237721 0.0466897 0.999774
-0.229057 -0.0291115 0.927188
-0.0649921 0.00318642 0.868427
-0.121397 0.0793772 0.985467
0.0682733 0.0697255 1.1288
-0.104493 -0.0411822 0.855364
0.0986275 0.00754191 0.841082
0.101367 -0.0272092 0.811103
-0.0513701 -0.00570857 0.85996
-0.106161 -0.0733681 0.884028
-0.155754 0.0752022 0.998539
-0.245588 -0.00602209 0.947433
-0.150608 0.0449594 0.933364
-0.209119 -0.067139 0.957649
-0.12693 0.0493553 0.925886
0.118948 -0.0229381 0.814647
-0.169714 -0.00581559 0.887936
-0.0610043 0.0122028 0.883074
0.0234849 -0.0488198 0.812254
-0.150378 -0.0102495 0.873148
0.124152 -0.00998976 0.827339
-0.162472 0.0215578 0.909411
-0.216393 0.0666961 1.02583
-0.114879 -0.059713 0.879413
-0.13452 0.0693172 0.968824
-0.200383 0.0662024 1.01233
-0.134175 0.0214074 0.898205
0.0358671 0.0413376 0.782641
0.0738798 0.0855779 1.14329
0.109737 -0.044411 0.805769
0.0743251 0.0912416 1.156
0.0902872 0.0120008 0.850675
0.053767 -0.0531494 0.811658
0.0350849 0.0237872 0.744069
-0.221437 0.0415169 0.983982
0.0234982 -0.0531744 0.813157
-0.12662 -0.0190074 0.854245
-0.0944919 0.0492288 0.922793
0.0632537 0.0111303 0.717318
-0.180264 0.0032586 0.90339
0.111613 0.081866 1.17937
-0.00670284 0.0201075 0.787382
0.00618056 -0.053147 0.812362
0.0183946 -0.0178015 0.740554
-0.0896044 0.0444872 0.91676
0.0711001 -0.0704824 0.811403
-0.165409 -0.0329927 0.890338
-0.158627 -0.0564276 0.917697
-0.0267679 0.0850846 1.01152
0.172281 0.0782337 1.22059
0.12504 0.0397518 0.907333
0.00605587 0.0199845 0.776449
0.0880875 0.0395212 0.898296
-0.0927942 0.0212733 0.888746
-0.16989 -0.00129377 0.889896
-0.00249626 -0.0754849 0.829026
-0.0915563 -0.0546936 0.862865
0.0187276 0.0241645 0.771986
-0.00684613 -0.0665778 0.824492
-0.0504533 0.0797576 0.99807
-0.114579 0.00768589 0.875423
-0.0691736 -0.00126962 0.860823
-0.0614756 0.025888 0.897485
-0.0386623 0.0122437 0.88998
-0.0241143 -0.0228777 0.813591
-0.0598248 -0.0585657 0.845773
-0.104134 -0.0145232 0.84939
-0.198436 -0.0149909 0.901649
-0.0696465 0.00766913 0.87353
-0.115088 -0.0643226 0.882683
0.0583222 -0.00992895 0.819469
0.0683774 0.0749218 1.13188
-0.0126964 0.097302 1.06684
0.0839631 -0.0228506 0.809661
0.0824598 0.0211007 0.873866
-0.226516 0.04158 0.986464
-0.0288385 -0.0714539 0.837558
-0.221541 -0.0386673 0.942878
-0.0856098 -0.0318793 0.831525
-0.0284896 -0.0619241 0.81564
-0.00663752 -0.00120688 0.770076
0.0512704 0.0153242 0.728213
-0.0570116 0.0259173 0.89977
0.0327583 0.100426 1.133
-0.194797 -0.0717284 0.955977
-0.163529 -0.0473376 0.921371
0.0554569 0.023602 0.729946
-0.0770123 -0.0231725 0.835511
0.00207817 0.0810352 1.03072
-0.00246692 -0.0487122 0.808409
0.160713 0.0619171 1.20867
-0.23959 -0.0153032 0.937043
-0.105485 -0.0594768 0.872506
0.0529173 0.0847992 1.12439
0.00597664 -0.00119546 0.75332
-0.231236 -0.0387383 0.945364
-0.109373 -0.0012726 0.863267
-0.206114 0.036556 0.974956
-0.120974 0.0305878 0.905167
0.172355 0.0516775 1.22232
0.0673505 0.0234315 0.717014
-0.036536 0.0902803 1.02002
0.155287 0.0565769 1.20701
-0.237759 0.0127919 0.960657
-0.154902 -0.0147387 0.873411
0.0796438 -0.0660681 0.808784
0.0796054 -0.0487606 0.808459
-0.0371738 -0.0532783 0.816471
0.0234372 -0.0400881 0.808783
0.116544 0.0712842 1.17439
-0.185253 0.00326649 0.907559
0.0754055 -0.066139 0.810911
-0.110537 0.0690239 0.961953
0.101175 -0.0314778 0.807603
-0.150691 -0.00577739 0.877061
-0.256028 -0.00604923 0.955011
-0.0172058 0.0853153 1.01708
-0.213032 0.0671617 1.04049
-0.15959 0.0402698 0.929747
-0.235248 -0.0339724 0.939692
0.120729 0.02612 0.911686
0.102167 0.0305983 0.906925
-0.0377254 -0.0188637 0.844123
-0.249726 -0.0200323 0.942792
0.0232005 0.0500595 0.790261
-0.00240809 -0.0138454 0.765868
-0.203535 -0.0150325 0.906434
0.0069812 0.0816609 1.04639
-0.0553865 -0.0629363 0.844716
-0.142394 0.0853441 1.01281
-0.06293 0.0543207 0.941797
0.0450966 -0.0488026 0.811207
0.0553341 0.0153076 0.726208
0.084604 -0.0709259 0.822241
0.00598027 -0.00956878 0.754359
-0.100703 -0.0548318 0.867113
0.160791 0.0672338 1.20959
-0.0645332 -0.00569532 0.855228
0.0675684 0.0317341 0.722437
-0.0974769 0.0792105 0.982603
-0.24425 -0.0292795 0.936615
-0.187054 0.0217686 0.925992
-0.0027615 0.0807464 1.02348
0.116932 0.012017 0.851691
-0.128068 0.00320407 0.875543
-0.21413 -0.0672451 0.960237
-0.205302 -0.0815718 0.965825
-0.158508 0.0308181 0.916837
0.106117 0.081642 1.17367
-0.101593 0.0740236 0.970565
-0.214157 -0.0105325 0.919142
-0.0217238 0.0699097 0.990163
-0.0315772 0.0850987 1.01179
0.00185561 -0.0661754 0.813478
-0.0359041 0.0697648 0.985835
-0.16387 0.0355788 0.925639
-0.106404 0.0740968 0.972266
0.152351 0.0169456 0.90583
0.0795822 -0.0357905 0.808235
0.0233446 0.0632652 0.800968
0.0749651 0.0443346 0.910801
-0.0914527 0.106916 1.05957
-0.208449 -0.0196418 0.909243
-0.17934 -0.0618498 0.942039
0.01014 -0.00536845 0.749779
-0.260651 -0.0154564 0.954032
0.161039 -0.00126474 0.847939
-0.229487 -0.0770991 0.969653
-0.0605754 0.00318863 0.869869
-0.0110912 -0.0271106 0.807326
0.0276293 0.100305 1.13048
0.102544 -0.00563042 0.832328
0.0841179 0.0702257 1.14353
0.0106205 -0.0755736 0.831147
-0.229722 0.022346 0.973051
-0.183737 0.0606415 0.989739
-0.184414 -0.0573321 0.946373
-0.144502 0.0353395 0.914156
-0.0688755 -0.0676122 0.851571
0.0478798 0.089937 1.12589
0.0407965 -0.0271992 0.812808
-0.172791 -0.0381547 0.92179
0.0146535 0.0457882 0.790509
-0.188364 -0.0194506 0.892543
-0.0713912 0.0445437 0.919964
0.184821 0.0844334 1.24307
-0.181953 0.0217083 0.921098
-0.112013 0.0351849 0.907923
-0.111563 -0.0785057 0.898949
-0.0372662 -0.0403711 0.821321
0.140045 -0.0314939 0.805937
-0.230705 0.0319616 0.981358
-0.113116 -0.0145434 0.851442
0.115569 -0.0100019 0.830123
0.0839341 -0.0487676 0.808524
-0.0241112 -0.0574877 0.812591
-0.103925 -0.036548 0.845369
0.0798791 0.0917066 1.1668
-0.173814 -0.0193397 0.883045
-0.14129 0.0799048 0.997404
-0.18042 -0.0715851 0.953412
0.0143165 0.00715829 0.749885
-0.249942 -0.0153715 0.944519
-0.148779 0.0306988 0.91015
0.0407729 -0.0660928 0.810755
-0.032964 -0.0360733 0.823985
-0.199851 0.0268708 0.960395
0.0839819 0.0442799 0.908063
-0.0649157 0.0847213 1.00206
0.161824 0.0215581 0.909498
-0.170595 -0.0331238 0.897447
-0.176157 0.0124136 0.908493
-0.228846 -0.0627262 0.964652
-0.194538 -0.00130797 0.908458
-0.00675632 0.0288659 0.801525
0.122539 -0.0573016 0.802722
-0.193349 -0.0149486 0.896739
-0.108468 -0.0365951 0.847494
-0.0656496 0.0167372 0.887256
0.122638 -0.0444015 0.804549
-0.00246802 -0.0271452 0.809668
0.114668 -0.0663513 0.814677
0.0757459 -0.00558952 0.820288
0.0813207 0.00756705 0.848081
0.140425 0.088845 1.222
-0.234251 0.056615 1.01128
-0.117373 -0.0277832 0.848481
-0.123166 -0.00127735 0.869388
0.0232528 0.054454 0.794168
0.0667853 -0.0185555 0.813143
0.0494606 -0.0185499 0.813146
-0.0637985 0.0691686 0.96815
-0.129069 0.064235 0.957931
-0.122302 0.049343 0.925702
0.0632347 0.0152264 0.716771
-0.161798 0.0806193 1.01381
0.13318 0.0718586 1.19101
-0.149942 -0.0236325 0.867589
-0.213321 -0.0196709 0.911576
0.0745335 0.0395424 0.8999
-0.17596 0.0455521 0.956893
-0.185832 -0.0812737 0.960506
-0.00686882 -0.0711664 0.830376
0.0537755 -0.0574833 0.811814
-0.20423 -0.0670685 0.956086
-0.23626 -0.038801 0.947954
0.0408051 -0.0228771 0.813248
0.107601 0.049228 0.922074
-0.00240732 0.00300884 0.765361
-0.211642 -0.0385539 0.938211
-0.0323714 0.102002 1.06171
0.00619642 0.0594768 0.81682
0.13453 0.0215681 0.9125
-0.211578 0.0414413 0.9814
-0.0241418 -0.0445661 0.815257
-0.178201 0.0815251 1.03521
-0.0163572 0.03075 0.919062
-0.0734803 -0.0677818 0.856047
-0.0254144 0.0260657 0.911341
0.116431 0.00755721 0.843791
-0.129049 -0.0510078 0.889233
-0.15196 0.0546999 0.950469
-0.0557302 -0.0057006 0.857236
-0.192956 0.0557925 0.986107
-0.185013 0.0873216 1.05629
-0.103908 -0.0189021 0.845343
-0.198828 -0.0104491 0.905432
-0.179475 0.0655879 0.995451
0.0121983 0.0889513 1.10309
-0.156352 0.0499475 0.946951
0.0104869 -0.0444117 0.8091
-0.180636 0.00783688 0.907297
-0.257063 0.008098 0.962906
-0.0549558 -0.027481 0.83123
-0.0343908 0.0214137 0.90319
-0.0725765 -0.0450547 0.833884
0.106857 0.0443256 0.908897
0.034807 -0.00531001 0.730409
-0.224222 -0.0721866 0.96546
0.126836 -0.0616099 0.802194
-0.260892 -0.0107623 0.955875
0.0968026 -0.0444105 0.806488
-0.0460544 -0.0360982 0.824961
-0.183552 -0.0477765 0.937519
0.0471603 0.0112018 0.728877
-0.0626413 0.0494567 0.933012
0.0188294 0.0327987 0.781488
-0.0158243 -0.0765679 0.855202
-0.0435225 0.0259848 0.905083
-0.110252 -0.0596371 0.877293
-0.193018 -0.0431814 0.938933
-0.0349691 0.044864 0.934792
-0.012175 0.064921 0.983098
-0.0986613 0.0897604 1.00629
-0.185908 0.0409978 0.962553
-0.125847 0.0352343 0.909749
0.187196 0.0365465 1.2732
0.0146085 0.0371281 0.785212
0.0840686 -0.018551 0.811983
-0.231863 0.0416891 0.991129
-0.111053 0.0213184 0.891772
0.105982 -0.0229443 0.815941
-0.101911 0.021295 0.89021
-0.0561406 0.0956234 1.03045
-0.19514 -0.076553 0.959237
-0.017038 0.0749495 0.997791
-0.115071 0.0122216 0.883459
0.149119 -0.0272548 0.810848
0.00184827 -0.0314222 0.807233
-0.255759 -0.0107428 0.952937
-0.10963 0.0957638 1.03125
0.0838602 -0.0400915 0.807143
-0.0288273 -0.00564041 0.838226
-0.143691 0.0645053 0.965189
-0.170198 0.0704732 0.999094
-0.159471 -0.0192362 0.874164
0.157514 0.026172 0.91283
-0.168699 -0.0567362 0.927399
-0.140452 -0.0235363 0.860678
0.0517303 0.0321114 0.743488
-0.212009 0.0462901 0.985329
-0.0678905 0.0592404 0.950855
-0.0885254 0.0258553 0.894011
0.0101748 0.0113719 0.75575
-0.25063 -0.034177 0.94963
-0.242074 0.00806699 0.957172
0.138609 0.0667163 1.194
-0.0688525 -0.0631697 0.851108
0.189844 0.0628378 1.2394
0.0788357 0.0700796 1.13926
-0.213738 -0.0151107 0.915357
-0.219741 -0.0817057 0.967529
-0.153735 0.0307784 0.914737
0.166291 0.0620314 1.21235
-0.210307 0.0270123 0.969737
0.0146864 0.0501732 0.79442
-0.184517 0.0656868 0.998025
-0.121512 0.0398745 0.913474
-0.140778 0.0971762 1.0594
-0.188751 -0.0525805 0.942872
0.105417 -0.0487233 0.80575
0.129787 0.0888282 1.22223
0.00616206 -0.0357388 0.80736
-0.0966685 -0.0729954 0.87494
0.116139 0.0261138 0.911511
-0.0461297 -0.0317938 0.828025
-0.130146 0.0306067 0.905744
-0.110296 -0.0641499 0.877898
-0.0196951 -0.014156 0.805371
-0.00750061 0.0702167 0.999009
-0.221873 0.0463713 0.987778
-0.157802 0.0858828 1.02443
-0.0154118 -0.0271238 0.808179
-0.224972 -0.0818995 0.971663
0.0188727 0.0413957 0.785408
-0.225212 -0.00132785 0.934438
0.137498 -0.062546 0.82894
0.058329 0.0903944 1.13645
-0.239112 -0.0199208 0.933142
-0.0704511 0.0258586 0.895013
-0.109354 -0.0413461 0.862491
0.0267053 -0.0219582 0.74065
-0.0199702 -0.0667613 0.829425
-0.0328241 -0.0532567 0.815819
-0.136961 -0.00128124 0.874146
-0.145272 -0.0191338 0.86527
-0.21906 -0.0531882 0.962393
-0.205602 0.00792256 0.925833
-0.0738395 -0.0770204 0.864772
-0.150995 -0.00128653 0.880855
-0.138793 0.0644095 0.962608
0.0796528 -0.0574332 0.809281
-0.00246335 -0.0357136 0.806094
-0.174299 0.0654336 0.991177
0.10543 -0.0444124 0.806084
-0.247911 0.0128332 0.965823
0.0320894 -0.0314726 0.809847
0.0430849 0.0112149 0.731002
-0.148461 0.0260711 0.906134
-0.157997 0.0261439 0.910727
-0.235246 -0.00599544 0.939961
-0.145122 -0.0235736 0.863284
-0.218896 -0.0578565 0.960791
-0.0611471 0.0167375 0.887445
-0.174785 -0.0665344 0.943213
-0.178777 -0.0148663 0.88763
0.0225399 0.100305 1.13054
-0.22909 -0.01522 0.927627
0.0399865 0.0327172 0.776713
-0.206453 -0.038449 0.933439
0.0191103 0.0677966 0.807094
0.101961 0.0396314 0.90291
0.132048 -0.0186145 0.815346
0.116244 0.044431 0.912903
-0.229997 -0.00597935 0.935309
-0.12765 -0.00127758 0.869428
0.0975902 -0.0143035 0.821679
-0.0553499 -0.0584937 0.843642
-0.213374 0.0721727 1.0436
-0.168917 0.086625 1.04115
-0.178833 0.0867066 1.04224
-0.118668 0.0590298 0.941473
-0.0434113 0.0213829 0.900273
0.0630196 0.0593989 1.12351
-0.155213 0.0969764 1.05411
-0.228905 -0.0580211 0.9653
0.110587 -0.0186495 0.820206
0.177955 0.0783977 1.22482
0.122498 -0.0615923 0.801975
-0.188556 -0.0149275 0.89452
0.0581535 -0.0185626 0.814139
-0.172481 0.0811213 1.02555
-0.155687 -0.00128822 0.882964
-0.0154759 -0.0662221 0.814692
0.0191741 -0.0531867 0.813625
-0.226061 0.0367353 0.982572
-0.160443 -0.00129035 0.885687
0.0736243 0.0750818 1.13626
0.13442 0.0261216 0.910886
0.0232998 0.0588541 0.79766
0.0103065 0.0242502 0.778344
-0.143136 0.0168552 0.89631
-0.130002 -0.0741399 0.90243
0.0487326 0.0542136 0.785733
-0.0857383 -0.0363088 0.834193
0.0321208 -0.022856 0.811749
0.13922 0.0775472 1.20332
0.116755 0.0766183 1.17815
-0.18978 0.0658583 1.00279
0.0407649 -0.0531151 0.810827
0.0712663 -0.00991792 0.816984
0.101114 -0.0444105 0.80625
0.0148264 -0.0487989 0.811569
0.0473949 0.0278468 0.737292
0.0685638 0.0853322 1.13731
-0.0109247 -0.00971081 0.780374
-0.146019 -0.0057698 0.874949
0.0191768 -0.0661782 0.813452
0.136957 -0.00996993 0.822779
-0.232339 0.0465678 0.995111
-0.217761 0.0512931 0.993985
0.0266875 0.00711688 0.739614
-0.0743297 0.0845526 0.997741
-0.219118 -0.0105509 0.92198
-0.10337 0.0445059 0.916873
-0.173302 -0.0428853 0.927381
-0.0383015 -0.0012769 0.872382
0.0477401 0.0846152 1.1199
0.0667394 -0.0228691 0.811846
0.075304 -0.0487708 0.809021
-0.151303 0.0498152 0.942163
0.195948 0.0576981 1.24779
0.0231002 0.0370804 0.782827
0.010338 0.0328371 0.783644
0.0961571 0.0256522 0.87873
0.125204 0.0306695 0.910004
-0.0241613 -0.0402666 0.816827
0.0103691 0.0414734 0.788831
0.00723583 0.0947608 1.1206
0.128425 -0.00998304 0.825808
0.036459 -0.0358414 0.812189
-0.0927559 0.0792225 0.983129
0.067404 0.0275536 0.718316
-0.0814064 -0.0407132 0.835336
0.129674 0.039777 0.908239
0.0318362 0.0673338 0.794575
-0.14497 0.0400492 0.920265
-0.11177 0.0792755 0.983478
-0.0271836 0.0961547 1.04233
0.0788886 0.0752381 1.14052
-0.253685 0.0176364 0.973618
-0.157029 0.0548445 0.955255
0.114379 -0.0315509 0.811024
-0.213979 -0.0577928 0.95915
0.0317371 0.0500433 0.789551
-0.105164 0.00318836 0.867738
-0.158609 0.0648512 0.974642
-0.161958 0.0169312 0.903412
-0.0985071 0.0398088 0.911633
0.100144 0.016592 0.869332
-0.250424 -0.0107139 0.948296
-0.138728 -0.0557921 0.897509
-0.0824169 -0.063406 0.857493
-0.186065 0.0124673 0.915883
-0.0827321 0.00318294 0.865682
-0.129122 -0.0555575 0.890171
0.0231484 0.0456842 0.786353
-0.160111 -0.00579419 0.881776
-0.0212087 0.0450648 0.94365
0.131634 0.0121508 0.871417
-0.0121203 0.0599184 0.97434
-0.171367 0.0123965 0.906285
0.171411 0.0170325 0.914059
-0.174879 -0.00129733 0.894689
-0.00664441 0.00302002 0.77191
-0.0503431 -0.0404005 0.822337
-0.0727675 -0.0188238 0.83917
0.198874 0.0366998 1.28181
-0.0583337 0.0543572 0.943245
-0.0645236 0.0794584 0.990163
-0.210741 0.0318048 0.973738
0.0682795 0.0646488 1.12916
0.0143024 0.00297965 0.748178
-0.122857 0.0541916 0.934303
-0.166028 0.00779232 0.897691
-0.113353 -0.0101385 0.855358
-0.173981 -0.0148415 0.884899
0.0184466 0.0071407 0.745545
-0.0448031 0.0595102 0.960415
-0.213721 -0.0289042 0.915043
-0.136382 -0.0102058 0.86619
-0.139 -0.0649982 0.900934
-0.204086 -0.0529507 0.955142
-0.160526 0.0972224 1.05894
0.0105844 -0.0709619 0.825099
-0.0333745 -0.0188919 0.846968
-0.161287 0.00778209 0.895588
-0.0111009 -0.0443986 0.808561
-0.0218866 0.0800024 1.00472
0.105437 -0.0530493 0.805967
-0.0728176 0.064136 0.957802
-0.200047 0.00328528 0.917148
-0.204351 -0.00590594 0.914122
-0.152126 0.0123125 0.894907
-0.136077 -0.0280022 0.861835
-0.148581 -0.0606564 0.906889
-0.238967 -0.0291988 0.931852
-0.134771 0.0306242 0.906519
0.0596356 0.0277555 0.731213
-0.22401 -0.067402 0.963763
-0.20947 -0.0335534 0.918407
0.036043 0.0629141 0.79076
-0.169375 -0.010318 0.884143
-0.0783897 -0.0771157 0.866899
-0.1669 0.016972 0.907598
0.0845601 0.0860301 1.15423
-0.0309187 0.0598137 0.970687
-0.205015 -0.0767479 0.963268
0.0389255 0.00294907 0.729858
-0.122259 -0.0145802 0.855557
-0.0110309 -0.0183845 0.797616
0.0710159 -0.0487916 0.809969
0.16405 -0.0100317 0.831913
-0.15602 0.00322712 0.886995
-0.0519079 0.00769089 0.879426
-0.12029 -0.0737569 0.893198
0.197497 0.0418732 1.26592
0.152185 0.0214842 0.903703
-0.156517 0.00776985 0.892987
-0.18933 -0.00586526 0.902341
0.148075 0.0306879 0.90952
-0.159061 0.035531 0.923442
-0.0452737 0.0695912 0.980699
-0.179883 -0.00130082 0.899364
-0.150677 0.0972161 1.05955
-0.0110876 -0.031413 0.806672
-0.17524 0.00324968 0.898598
0.124825 -0.00125558 0.837272
0.0624508 -0.0185532 0.813077
-0.197958 -0.0432496 0.941526
-0.154459 -0.0703877 0.922718
-0.233083 -0.0437596 0.960799
0.103386 0.0119837 0.847352
-0.143435 0.0214376 0.900223
-0.152979 -0.0377945 0.905198
0.0226312 0.0154848 0.746941
-0.1666 -0.0763475 0.956566
-0.0284932 -0.0489298 0.816266
-0.030422 0.0449691 0.939399
0.136269 0.012166 0.873434
-0.158615 -0.0518319 0.917682
-0.190582 -0.0813029 0.96076
-0.143781 -0.0468824 0.904354
0.0188062 0.0285121 0.779357
0.145 -0.0186093 0.81385
-0.1006 0.0639743 0.951625
-0.026553 0.074877 0.995754
-0.0959119 -0.0457484 0.861111
0.101145 -0.0487419 0.806687
0.131304 -0.0573709 0.804299
-0.136648 0.0495458 0.932686
-0.0393402 0.0399954 0.922741
-0.161622 0.0123472 0.899501
-0.203329 -0.0195875 0.90446
-0.00240766 -0.00120383 0.765611
-0.194203 0.0267375 0.951133
0.0314199 0.0283991 0.772128
0.028026 -0.0709847 0.825502
0.00616896 0.054897 0.808906
0.0318477 0.0587886 0.795525
-0.265091 -0.0201435 0.951731
-0.114778 -0.0506816 0.878022
-0.0638555 -0.0494607 0.835089
-0.145642 0.0448512 0.929064
-0.170283 0.0406236 0.945914
-0.184672 -0.00130263 0.901578
-0.0991079 0.049242 0.923079
-0.0110909 -0.0357346 0.807124
-0.0905038 -0.0408655 0.84179
-0.105242 0.0639636 0.951054
-0.181933 0.0506028 0.970465
-0.120691 0.0741959 0.97409
-0.153247 0.0261115 0.908731
-0.117664 0.0493257 0.925311
-0.0481918 0.03061 0.909785
0.0795038 0.0443224 0.910092
0.0061899 -0.0618891 0.814827
0.0957297 0.0920216 1.17361
0.00179795 -0.00959008 0.758273
-0.0367786 0.0957325 1.03321
-0.0256324 0.0400896 0.927498
0.0926372 0.0395294 0.898474
0.00185416 -0.0574753 0.812361
-0.138896 -0.0467683 0.900057
0.131757 -0.0662313 0.810221
-0.086251 0.0590588 0.94414
0.152751 0.0124158 0.910863
-0.011245 -0.0712 0.831218
-0.17564 0.0924855 1.06223
-0.181568 0.0170675 0.917083
-0.196424 -0.0382936 0.92658
-0.0314311 0.0799257 1.00267
-0.240267 -0.0340277 0.942283
0.0266574 0.00296198 0.737664
0.114175 -0.0358168 0.807713
0.118426 -0.0357978 0.806477
0.118233 -0.0573006 0.802978
-0.188976 -0.0286195 0.898575
-0.0240958 -0.0012358 0.81234
-0.0416067 0.0956663 1.03171
-0.0215495 0.0599258 0.974505
-0.0469665 -0.00571281 0.861457
0.1532 0.0308023 0.916279
-0.151566 0.0802955 1.00647
-0.0738793 0.0792986 0.985829
0.131745 -0.0229048 0.811121
-0.154063 0.0354375 0.91875
-0.0567072 0.0167565 0.889728
-0.150586 0.0750056 0.993679
0.097253 0.0350243 0.899996
-0.247091 -0.043755 0.958875
-0.110146 -0.0506133 0.875756
-0.0197492 -0.0271544 0.810176
0.0494566 -0.0401854 0.812649
-0.0445993 0.0545815 0.951636
-0.0768361 -0.040613 0.831009
-0.0768596 0.107157 1.06481
-0.163632 -0.042763 0.922686
-0.153707 -0.047139 0.914064
0.116209 0.00314279 0.840288
-0.209675 -0.0767375 0.962509
0.0184009 -0.00949757 0.741215
-0.0266604 0.0799616 1.00364
-0.132316 -0.00127957 0.87203
-0.230068 0.0567678 1.01726
0.136809 -0.0578776 0.819912
-0.245291 0.0224788 0.98307
-0.188683 -0.0479052 0.942294
0.0763763 0.00313099 0.835445
-0.0762088 0.10136 1.04757
-0.00266825 0.0500204 0.956068
-0.0523696 0.0213379 0.896041
0.0470744 0.00294243 0.72576
-0.260169 -0.0201231 0.950383
-0.151319 0.00322289 0.884887
-0.0902716 -0.0232035 0.83737
0.0234203 0.0720932 0.806486
-0.0263681 0.0648959 0.982191
-0.204767 -0.00131518 0.918027
-0.189483 -0.0668108 0.949977
-0.103763 -0.0320874 0.842571
0.0823154 0.0165958 0.87063
-0.154752 -0.0192056 0.871558
0.00184891 0.0462222 0.807539
-0.157884 0.059849 0.96576
-0.069153 0.0793172 0.986467
-0.124242 0.0641562 0.95583
-0.0284458 -0.0575024 0.812991
-0.0951762 -0.0145034 0.847335
0.0941798 0.00753757 0.840254
-0.0254731 0.0306977 0.915693
0.0278172 -0.0488311 0.812614
0.139706 0.0831043 1.21083
-0.0933326 0.0304735 0.899582
-0.00247139 -0.0617682 0.81129
-0.207496 0.0173236 0.943516
0.014716 0.0545648 0.797911
0.101999 0.0350971 0.903707
-0.215532 0.00331241 0.93149
-0.135457 0.0399475 0.916057
-0.149291 0.035392 0.916648
-0.167603 0.0262203 0.915526
0.140531 -0.0229284 0.812331
-0.163621 0.0864026 1.0363
0.0925361 -0.0660235 0.806946
0.14313 0.0260471 0.904777
-0.0811217 0.101387 1.04792
-0.229986 -0.0338792 0.934928
-0.104593 0.0589354 0.939168
-0.113057 0.0493209 0.9254
-0.0816087 0.0590582 0.944323
0.0683207 0.0596015 1.13059
-0.0706812 0.0304827 0.901136
-0.234554 -0.0106271 0.934241
0.0980089 -0.00124921 0.829551
-0.143501 -0.0604346 0.900264
-0.152827 0.059707 0.961468
0.140465 -0.0445931 0.811079
-0.224759 -0.00596294 0.930537
0.156555 0.0889669 1.22399
-0.0353963 0.0547595 0.958191
0.0636739 0.0318423 0.728468
0.173533 0.0895078 1.23632
-0.0491672 0.054481 0.947929
-0.124167 0.0122323 0.88454
0.0191365 -0.044443 0.810304
-0.0949359 -0.0188695 0.842633
-0.0702692 0.0212785 0.890178
-0.0879991 0.0792039 0.982879
-0.165037 0.0703083 0.994815
0.00619037 -0.0662244 0.81481
-0.146915 0.0545557 0.945683
-0.0723227 -0.0318037 0.827745
-0.0376437 -0.0671209 0.839002
0.0745889 0.0967312 1.16342
0.0710847 -0.0185484 0.812286
-0.1536 -0.0516849 0.912613
-0.0871207 -0.0680528 0.862889
0.145498 -0.00995921 0.820144
-0.0813976 -0.023174 0.835443
-0.082246 -0.00569589 0.854713
0.107314 0.00313952 0.838909
-0.146164 -0.032726 0.876535
-0.0857001 0.0540674 0.931858
-0.110719 0.0167459 0.886131
-0.103589 -0.0276374 0.839566
-0.12438 -0.0509426 0.887118
-0.138432 0.0168334 0.894201
0.111642 -0.00125527 0.837672
0.123707 -0.0143088 0.820772
-0.134905 -0.0743385 0.907209
0.156431 -0.0410458 0.845529
-0.00733706 0.0500186 0.955987
-0.114814 -0.0551883 0.878479
0.156831 0.0214984 0.904587
-0.157169 0.0169047 0.900813
-0.265108 -0.0295451 0.951736
0.189928 0.0682304 1.24023
0.127195 -0.0271892 0.808136
0.0275924 0.0588559 0.797652
0.0976321 0.0442752 0.907214
-0.22448 0.022293 0.96891
-0.0244662 -0.0758883 0.83864
-0.125502 0.0305834 0.904599
-0.0152811 0.00733483 0.793034
0.150303 -0.0362109 0.825066
0.0967912 -0.0357722 0.806466
-0.195599 0.00788991 0.918853
-0.206958 0.0462205 0.982845
-0.0687639 0.0741545 0.975474
0.0225393 0.00296572 0.739918
-0.114662 -0.0416594 0.876337
-0.175302 -0.0714007 0.948804
-0.0947582 -0.0364109 0.838919
-0.053991 0.0593216 0.953966
0.109862 -0.0358175 0.808016
-0.219622 -0.0769396 0.96665
-0.253569 0.0128823 0.972754
0.0494455 -0.0531532 0.811911
0.0972222 0.0395514 0.899305
-0.0958744 -0.00127051 0.860946
0.0188494 0.0370891 0.783293
-0.250673 -0.00603264 0.950253
-0.100916 0.00766808 0.871849
0.0442412 0.032728 0.777197
-0.0635673 -0.0317884 0.827192
-0.0684897 -0.0496447 0.841758
-0.0778079 -0.0544104 0.853825
-0.0643745 -0.0675287 0.849442
0.0451024 -0.027187 0.811893
-0.14505 -0.0794691 0.920096
-0.0592036 -0.031787 0.827253
-0.112769 -0.0233237 0.845674
-0.0906752 -0.0144886 0.845676
-0.247076 0.00807787 0.959228
-0.17215 0.0552046 0.966909
-0.201288 -0.0383444 0.928665
-0.0613174 0.0213029 0.892659
0.171925 0.0621589 1.2165
0.1015 -0.0229108 0.813543
-0.140662 0.0447319 0.924273
-0.141019 -0.0102192 0.868305
-0.137883 0.059323 0.949889
0.0689527 0.0909476 1.14922
0.158205 -0.0504502 0.866239
0.0623815 -0.0271806 0.810956
0.0754833 -0.0142345 0.813932
-0.154569 0.040162 0.924956
-0.0877855 0.0121788 0.878316
0.168694 -0.046416 0.883232
-0.06016 -0.00570043 0.857042
-0.00244742 0.0330357 0.794461
0.00184799 -0.0400407 0.806792
-0.124774 -0.0692098 0.892525
-0.0785181 0.00766241 0.871536
-0.147058 0.00774756 0.888279
-0.207649 0.0511477 0.989347
0.152273 0.00316265 0.849352
-0.103706 0.0492459 0.922992
-0.116933 0.0398703 0.913558
-0.22829 -0.043738 0.960385
-0.165009 0.0404695 0.938931
-0.1049 -0.00127227 0.863046
-0.0166652 0.0499899 0.95481
-0.159668 -0.0706617 0.929826
-0.212547 0.0511838 0.990249
0.168798 0.00322554 0.884962
0.110874 -0.0143351 0.824966
-0.0209172 0.0307211 0.917211
-0.123433 0.00319994 0.873426
-0.0520777 0.0122171 0.88555
-0.116198 -0.0785735 0.900316
-0.0893354 0.0397885 0.911106
-0.256506 -0.00134687 0.958673
0.0101559 0.00298699 0.752517
-0.0869604 -0.0634855 0.859619
0.112003 0.00755532 0.843601
-0.0259597 0.0499181 0.951899
0.0276372 0.071841 0.800105
-0.218925 -0.0484464 0.961304
-0.126316 0.0794887 0.987959
-0.140704 -0.028039 0.863952
-0.122023 0.102885 1.07623
-0.0594215 0.0742703 0.978866
-0.0664496 0.0351841 0.910006
-0.113592 -0.00571493 0.859274
0.0866951 0.0165797 0.868618
-0.191701 0.0459677 0.973423
-0.0319787 0.0959038 1.03693
-0.180539 0.0408429 0.955578
-0.156701 0.080472 1.01051
-0.121228 0.0352166 0.90908
0.0231291 0.0413866 0.784968
-0.162821 0.0599392 0.968341
-0.0998688 0.0957105 1.03062
0.0321118 -0.0574245 0.810474
-0.214637 -0.0336458 0.923183
-0.0594532 -0.0231589 0.835086
-0.159204 -0.0658488 0.924379
-0.0590731 -0.0447745 0.82295
0.0580672 -0.0488039 0.810884
-0.142091 0.0544872 0.943586
-0.064494 -0.0720778 0.852709
-0.0869461 -0.0590334 0.85946
-0.050575 -0.0274753 0.830977
0.0017993 -0.00119974 0.759615
-0.0913874 -0.00126987 0.860229
-0.0659153 0.0957317 1.03246
-0.162205 -0.0764785 0.960315
0.141614 -0.0536972 0.825653
0.115179 -0.014329 0.823919
-0.0109849 0.0158666 0.790136
-0.0679567 -0.031802 0.827812
-0.094761 -0.0232293 0.839188
-0.15276 0.0214738 0.902729
-0.133919 -0.0511456 0.894021
-0.216419 0.0414628 0.981921
-0.230999 0.00333618 0.943744
-0.169691 -0.0663569 0.93844
-0.149466 -0.0701996 0.917941
-0.0733709 -0.00569412 0.854509
-0.25998 -0.0294918 0.948843
-0.0162967 0.0260738 0.912035
0.00616504 -0.0443854 0.808045
-0.0890609 0.0351149 0.905324
-0.0264635 0.069878 0.989204
-0.233754 0.0175552 0.966852
-0.0596098 -0.0188272 0.839971
-0.13395 -0.042093 0.894674
0.0104729 0.0591317 0.806258
-0.188773 0.0607336 0.992317
-0.107127 0.0305297 0.902367
-0.0778844 -0.0633269 0.855366
-0.14287 0.0594613 0.9541
-0.0164827 0.0402148 0.933622
-0.0420857 -0.0672022 0.841135
-0.00247054 -0.0574262 0.810812
-0.0122434 0.070044 0.994069
-0.178382 -0.043001 0.93216
0.118327 -0.0444002 0.804786
-0.137695 0.00772793 0.884173
-0.0976623 0.0258813 0.895472
0.0714028 -0.00558958 0.820483
-0.108451 -0.0189265 0.847468
0.167421 -0.00127982 0.869582
0.0361494 0.0673861 0.795888
-0.00678738 -0.0530561 0.809263
-0.0111516 0.0291164 0.817143
-0.0466136 -0.0717995 0.846085
-0.0504195 -0.0535309 0.824768
0.153979 -0.0142973 0.816991
-0.160642 -0.0329405 0.887734
-0.119206 0.00769571 0.877542
-0.133495 -0.0374332 0.888343
-0.0654512 0.0121941 0.881589
0.14598 -0.00562067 0.826193
-0.088117 0.0167287 0.885374
-0.0286432 -0.0317562 0.826217
0.147729 -0.0631872 0.847005
-0.136481 -0.0325532 0.8673
0.00616304 -0.0400579 0.807559
-0.132748 0.00320904 0.878143
-0.0546756 -0.0490851 0.821436
-0.135823 -0.0190573 0.858483
-0.0941627 0.0444794 0.916205
-0.153612 -0.0425304 0.912981
-0.190711 0.0363165 0.963431
0.051129 0.0029388 0.723511
-0.0269284 0.0904235 1.02337
-0.0745895 0.0167223 0.885245
-0.0913893 -0.0501513 0.859593
-0.206542 0.0126015 0.934621
-0.174508 -0.00582524 0.89066
-0.0833181 0.012181 0.878858
-0.119534 -0.0462976 0.882158
-0.142375 0.00773796 0.886285
-0.119769 0.0961134 1.03812
-0.0360898 0.0748893 0.995933
-0.215053 0.0614515 1.01344
-0.188694 -0.0240309 0.895814
-0.10477 0.0957572 1.03136
-0.135256 0.0744309 0.979424
-0.108842 -0.0101306 0.854188
-0.0729769 -0.0497067 0.843888
0.0225189 -0.00118534 0.73834
0.172108 0.0569144 1.219
-0.228856 -0.0532882 0.965012
-0.1952 0.0032807 0.914946
-0.00242618 0.0157687 0.779125
-0.100607 -0.0458639 0.865573
0.0316176 0.0413447 0.783027
-0.213407 -0.0242704 0.912293
-0.150232 -0.0147192 0.8713
-0.00677152 -0.0357012 0.805456
-0.0679447 -0.0448867 0.827216
-0.213187 0.0174097 0.952664
-0.0869635 -0.00127009 0.860767
-0.0720848 0.0542341 0.938378
-0.173195 0.0309913 0.926418
0.167684 0.0892377 1.22998
-0.0833511 0.0792871 0.985168
-0.0747789 0.0212782 0.889985
-0.255031 -0.0200851 0.947307
0.0538912 -0.0142492 0.816569
0.0315777 0.0370425 0.780872
-0.0286169 -0.0230183 0.824673
-0.224321 -0.01058 0.926755
0.0924486 -0.0400754 0.805997
0.0148514 -0.0618703 0.814225
-0.0690032 -0.0721669 0.854838
-0.115859 0.0741208 0.972372
0.161385 0.0123787 0.904402
-0.0111013 -0.0228186 0.809033
0.201679 0.0631966 1.25125
-0.221203 0.00798829 0.940278
-0.236987 0.0417548 0.993703
-0.0509491 -0.0672967 0.8435
-0.218573 -0.0243375 0.917072
0.00606977 0.024279 0.780476
-0.0817823 -0.0144738 0.844208
-0.235731 0.0320021 0.983314
0.129876 0.0261248 0.911438
0.0142874 -0.00119073 0.746345
-0.13739 0.0032128 0.880017
0.058094 -0.0401752 0.811932
-0.138277 0.0906111 1.02303
0.148328 0.0124274 0.912998
0.114107 -0.0401151 0.806552
0.079592 -0.0444335 0.808265
-0.0558921 0.0903744 1.02168
-0.173865 -0.0522895 0.933416
0.00714599 0.0885866 1.09449
-0.157669 0.0215241 0.906814
-0.0285966 -0.0360556 0.823164
-0.0724748 -0.0274966 0.831662
-0.0336286 -0.0101526 0.861097
-0.0847522 0.0397783 0.910824
0.00181892 0.0200097 0.778696
-0.0969041 0.0740361 0.971135
-0.105801 0.0689906 0.961264
-0.0736128 -0.00126961 0.860631
0.0558876 0.0362711 0.743165
-0.223883 -0.0532214 0.963088
-0.173919 -0.0238664 0.884131
-0.0898958 0.0492254 0.922881
0.0753399 0.049142 0.920242
-0.0981295 0.0845089 0.99568
0.0377634 0.0951084 1.12806
-0.0223543 0.0963684 1.04693
0.0763564 0.0544524 0.946028
0.0185034 0.0155191 0.750864
0.10671 0.0351525 0.906462
-0.0685361 -0.014465 0.843618
-0.0401697 0.0595797 0.962805
0.0147492 0.0589874 0.801821
-0.125145 -0.0739545 0.897978
0.0632651 0.0193349 0.717556
-0.175354 -0.0331677 0.899548
-0.03718 -0.0576232 0.816643
0.0407637 -0.0487914 0.810895
-0.14366 0.0909604 1.03049
-0.220118 0.027063 0.972406
-0.0261074 0.0548865 0.96288
-0.101436 0.107066 1.062
-0.0815691 -0.0188295 0.83936
-0.0450797 0.0645855 0.972371
-0.145343 -0.0280759 0.866066
0.0408643 -0.0142418 0.815967
-0.101647 0.0167344 0.885347
-0.141322 -0.00576073 0.872345
0.144556 -0.0272094 0.808179
-0.223977 -0.0626762 0.963629
-0.095323 0.0589293 0.939446
-0.260186 -0.0248199 0.950452
-0.225063 -0.0338335 0.932857
0.00216589 0.0945551 1.11601
0.0801972 -0.00559706 0.822557
0.105634 0.0709307 1.16413
0.120623 0.0306637 0.909938
-0.0111081 -0.0487458 0.809624
-0.0508367 -0.0188305 0.840561
-0.125208 0.0259677 0.900203
0.0349341 0.0153955 0.736666
0.0324854 0.0894927 1.11568
-0.0547153 -0.0404174 0.822972
-0.189718 -0.00130614 0.90625
0.0731415 0.0120872 0.864783
-0.105444 -0.0549796 0.871901
-0.0300987 0.0353324 0.918983
0.0149937 -0.0755736 0.831116
0.0348336 0.00295212 0.731735
-0.131221 0.0795847 0.990052
0.00691297 0.0760272 1.02658
-0.0918375 0.0690564 0.963844
-0.0820111 -0.010097 0.849397
0.203768 0.0965395 1.27342
0.127051 -0.0357989 0.805947
-0.0527114 0.030588 0.908289
-0.0867653 0.0640821 0.955586
0.149876 -0.00996151 0.820214
0.109725 -0.0616691 0.805056
-0.113186 -0.0366954 0.85229
-0.245583 0.0272793 0.985379
0.036432 -0.0574214 0.810294
-0.0842378 0.0304637 0.899395
0.137794 -0.00125395 0.833946
-0.13029 0.0966957 1.04986
-0.14659 0.00321783 0.882285
0.140901 0.0944766 1.22931
-0.0508859 -0.058422 0.841511
0.149539 -0.0316794 0.815876
0.00184888 -0.0443732 0.807559
-0.183931 0.0819126 1.04445
-0.178605 -0.0193721 0.885778
-0.0530294 0.0399377 0.919634
-0.0341761 0.0122522 0.891387
0.00186962 -0.0710351 0.827011
-0.128134 0.0902754 1.01617
-0.11818 0.0541648 0.933632
-0.183873 -0.052512 0.940786
0.0451002 -0.0401588 0.811564
0.196225 0.052388 1.2511
0.142713 -0.0585171 0.839685
0.116386 0.0608086 1.17174
-0.230474 0.0271744 0.979446
0.00180185 -0.0180201 0.762021
-0.231156 0.0367931 0.98515
-0.0486735 0.0447274 0.928602
-0.209384 0.0221876 0.961155
-0.220993 0.0366794 0.980092
0.0104982 -0.048781 0.810937
-0.220004 -0.00132429 0.92978
-0.096218 -0.0637363 0.866527
-0.225741 0.00332706 0.938973
0.0582025 -0.0142435 0.815708
0.183675 0.0732346 1.22954
-0.120268 0.0213516 0.894173
0.0274193 0.0456959 0.786749
0.0225222 -0.00533447 0.738587
0.032137 -0.0488206 0.812152
-0.176594 0.0759588 1.01705
0.164038 -0.00564248 0.831797
0.0630051 0.0644532 1.12287
-0.139919 -0.0791609 0.912989
-0.00269551 0.0599614 0.975793
-0.151801 0.0077597 0.89088
0.185742 0.0416631 1.25546
-0.0241585 -0.0272554 0.816855
0.132063 0.0166816 0.877482
0.0407788 -0.0358369 0.811871
-0.183661 -0.0239646 0.891024
0.0925062 -0.0573695 0.806656
-0.154299 0.0915185 1.04223
0.0483136 0.0368411 0.770811
0.148111 0.0169809 0.910159
-0.134099 -0.0648235 0.896151
-0.132301 0.0542783 0.936788
0.0924573 -0.0357636 0.806258
-0.186893 -0.0382256 0.924074
0.0775099 0.0120745 0.86265
0.00611413 0.0415736 0.793172
0.0724501 0.00756185 0.847177
-0.0287847 -0.0669433 0.834294
0.0580771 -0.0531361 0.81107
0.147047 -0.0540928 0.838757
-0.128763 0.0122418 0.885689
-0.0390048 0.026004 0.906585
-0.0811474 -0.0318436 0.829671
-0.171605 0.0503333 0.960811
-0.171731 0.0169997 0.910306
0.0430159 -0.00117873 0.728265
0.0859064 0.0120058 0.851655
-0.102209 -0.0782899 0.894239
-0.124786 0.0691338 0.964234
-0.0241512 0.00309628 0.816505
0.0443574 0.0413198 0.781685
-0.227475 0.0127401 0.953829
-0.0285643 -0.0403608 0.821017
-0.195069 0.0660302 1.00756
0.0191561 -0.0488128 0.812047
0.0378536 0.100426 1.13291
0.105728 0.0761682 1.16588
-0.0241066 -0.00556326 0.813145
0.0881946 -0.0487365 0.807164
0.0710873 -0.0661447 0.811241
-0.0221595 0.0906863 1.02931
-0.0805015 0.0445138 0.918312
0.0391185 0.0195605 0.738328
-0.0831523 -0.0773989 0.873561
-0.0545572 0.0693695 0.974149
-0.148463 -0.0423643 0.905869
-0.113814 0.0589165 0.938025
-0.144311 0.0695051 0.973496
-0.00246452 -0.0314188 0.807034
-0.0971233 0.0167302 0.885112
-0.135965 0.0446979 0.923141
0.0190288 0.058919 0.799693
-0.0951651 -0.0409799 0.846724
-0.24396 -0.0245925 0.934383
-0.0948217 0.0540102 0.929381
-0.0868408 -0.0500882 0.857467
-0.0735234 -0.0722563 0.856967
-0.148726 -0.0470088 0.909139
-0.144072 0.0306673 0.908536
0.157033 0.0945745 1.23056
0.00623106 -0.0710185 0.826575
0.0967972 -0.0573565 0.806022
0.00184081 0.0417254 0.799727
-0.16375 0.0650208 0.979423
-0.00677749 -0.0227959 0.807258
0.0838763 -0.0271453 0.80773
-0.115355 0.0691043 0.963969
-0.159515 -0.0237309 0.874624
0.038911 -0.00943384 0.72919
0.00180061 0.00300123 0.760897
-0.152443 0.0168837 0.898818
-0.0688071 -0.0587106 0.850033
-0.0902536 -0.0363644 0.83679
-0.229535 -0.0106085 0.931407
-0.0973439 0.0212826 0.889349
-0.141474 0.0496206 0.935274
0.0307628 0.00709942 0.735277
0.201937 0.0740777 1.25381
0.0580931 -0.0358487 0.811995
-0.0416215 -0.0577683 0.821125
-0.225405 0.0271329 0.976967
-0.213666 -0.0483161 0.956542
0.0104839 -0.0357672 0.808776
0.0101835 -0.0263571 0.757096
0.0266154 -0.00532341 0.734923
0.191562 0.0904579 1.25874
-0.0960027 0.0640159 0.953129
0.115883 -0.00564137 0.83511
-0.0387883 0.016809 0.896103
0.0450929 -0.0315051 0.81144
-0.219228 -0.0720879 0.963301
0.164642 0.00323225 0.889282
0.105737 -0.0272218 0.811689
-0.0729209 -0.0144621 0.843086
0.0143258 -0.0262637 0.750841
-0.0964636 0.0690116 0.962345
0.160743 0.0566433 1.20922
0.0443794 0.0541038 0.782229
-0.0241312 -0.0142315 0.814951
0.066922 -0.00991668 0.816921
-0.246078 -0.00134099 0.951329
-0.00736715 0.0549102 0.963885
0.110964 0.0658572 1.16723
0.0191817 -0.0575372 0.81421
-0.0173663 0.0909693 1.03569
-0.0470883 0.106788 1.05859
-0.0812572 -0.0362627 0.832064
-0.0154991 0.0204583 0.818511
0.0798745 0.049112 0.918886
-0.0990931 -0.0319996 0.837774
0.0667951 -0.0705044 0.812133
0.177805 0.0570432 1.2236
0.179514 0.0414679 1.24533
-0.162123 0.0549894 0.96004
0.0593727 0.0194024 0.723694
-0.0534985 0.0495363 0.936401
-0.0286951 -0.00998128 0.829772
0.00185036 -0.0487253 0.808896
-0.077878 -0.0588907 0.855359
-0.0639697 -0.0188181 0.838941
-0.18271 0.0555608 0.978753
-0.148672 -0.0515592 0.908322
0.0142762 -0.0178455 0.744889
-0.099274 -0.0364576 0.841047
-0.0771426 -0.0451653 0.83821
0.101078 -0.0616532 0.805092
0.193009 0.0366203 1.27733
-0.0987868 0.0445023 0.91696
0.0495672 -0.00991475 0.817124
0.0709574 -0.0357943 0.808782
-0.210345 0.00330335 0.926711
-0.0911261 -0.00569775 0.854903
-0.223436 -0.0197589 0.919077
0.0926127 0.0304499 0.898139
-0.108224 -0.0232935 0.843549
0.0191471 0.0722478 0.810411
0.00206528 0.0757167 1.01831
0.0364415 -0.0228543 0.811534
-0.102885 0.0845004 0.995239
0.0148527 -0.0662051 0.814231
0.0541628 -0.0709648 0.8244
-0.159578 0.0917489 1.047
-0.191312 0.0411528 0.969524
-0.203139 -0.0433665 0.946298
0.0225057 -0.00947645 0.737295
-0.164331 -0.0147828 0.87825
-0.251657 0.00336448 0.957921
0.12984 0.00756962 0.845937
-0.0123363 0.0801637 1.00885
-0.0329109 -0.0403612 0.820961
0.0935227 -0.00561391 0.827421
-0.137237 0.0851274 1.00803
0.0174544 0.100328 1.13109
-0.252173 -0.0438259 0.961453
0.0898443 0.00754227 0.84162
-0.149243 0.0696083 0.976074
0.0123629 0.100323 1.13102
0.0835616 0.0395235 0.898613
0.0364444 -0.0271799 0.811614
-0.0930286 0.0258507 0.89346
0.105206 0.0256725 0.879737
-0.13126 0.0446589 0.921782
-0.199105 -0.0528676 0.952552
0.100249 0.0707766 1.15968
-0.0332124 -0.0670399 0.836868
-0.0502692 -0.0490283 0.819451
-0.13875 -0.0603412 0.897665
-0.0375664 0.107695 1.07627
0.0968097 -0.0659957 0.80596
-0.0374837 -0.0274889 0.832198
-0.0118216 0.0354622 0.926234
-0.234803 0.0223815 0.975631
0.0357707 0.0327397 0.778026
0.014486 0.0199182 0.770511
-0.110047 0.00768197 0.874735
-0.215981 0.00796648 0.935503
-0.0462624 -0.0581369 0.83264
0.0578972 0.0745368 1.12122
0.0184048 -0.0219671 0.741467
-0.047456 0.00769623 0.88085
-0.0416978 -0.0360974 0.825026
0.125314 0.0261249 0.911746
-0.0262495 0.0598947 0.973423
0.0636252 0.0906707 1.14283
0.00183445 0.0373014 0.793604
-0.0591637 0.0692443 0.970451
0.118366 -0.0487316 0.805257
-0.0443152 0.0496051 0.939327
0.0930474 -0.0142735 0.818085
-0.128344 0.00770647 0.879575
0.120599 0.00314274 0.839981
-0.138828 0.0214266 0.899581
-0.0820767 0.0640669 0.955324
0.0307008 -0.01358 0.731742
0.151888 -0.054254 0.843879
0.0796367 -0.0617421 0.808775
0.0525129 0.041047 0.769689
-0.00245832 0.0374838 0.80237
-0.148687 0.0910692 1.03257
0.112359 0.0120005 0.849428
-0.228755 0.0175319 0.964791
0.0101509 -0.0179135 0.751565
-0.184197 -0.0285812 0.896479
-0.0692188 -0.076835 0.860455
0.134288 0.0830188 1.20888
-0.0405985 0.0696841 0.983446
0.040827 -0.0185591 0.81427
-0.208986 -0.0624013 0.956561
0.164968 -0.0189144 0.8421
0.0691985 0.0964208 1.15665
0.113857 0.0166407 0.874056
-0.0716881 0.0493324 0.927836
-0.0512687 0.0955837 1.02973
-0.164649 -0.0103037 0.881916
0.0623915 -0.0488052 0.810792
-0.209906 -0.00131872 0.922692
-0.15575 -0.032859 0.883439
-0.0197697 -0.0574469 0.811357
-0.0310795 0.0648522 0.980788
-0.0678482 -0.0361087 0.824814
-0.204829 0.0775358 1.05663
0.051329 0.019472 0.730145
-0.178321 0.0604159 0.982767
0.161447 0.0834304 1.21806
-0.0111627 -0.0663405 0.817969
0.1558 -0.0364782 0.838173
-0.0837823 0.0212742 0.889246
-0.043917 0.0399844 0.922112
0.101093 -0.0573476 0.805506
-0.0780282 -0.067883 0.858636
0.0802579 -0.0709309 0.822566
-0.0853613 0.0492575 0.924344
0.0101445 -0.0137252 0.750515
-0.002415 -0.0181109 0.770902
0.139886 -0.0400925 0.803714
0.0797945 -0.0142315 0.813358
-0.069893 0.0121858 0.880138
0.0948986 0.0757807 1.15534
-0.082336 -0.0544785 0.855952
0.0753556 -0.0185352 0.810824
-0.0602516 0.0848871 1.00613
-0.198903 -0.0287449 0.905964
0.0592132 0.00703654 0.719158
-0.0152678 -0.00977145 0.791461
0.00613502 0.046009 0.799194
-0.0395127 0.0447799 0.931074
-0.102194 0.0258834 0.895385
0.0425912 0.0844442 1.11572
-0.240857 0.0320545 0.985989
0.122761 -0.0358048 0.806542
-0.139832 -0.0745375 0.911987
-0.0916651 0.00318399 0.865879
-0.22728 0.046507 0.993058
0.0191462 0.0765642 0.810148
0.0788463 0.06498 1.13971
-0.213623 0.056243 1.00019
0.131061 -0.0529559 0.801094
-0.0337707 -0.00573501 0.868979
0.00181262 0.0157107 0.772574
-0.0197818 -0.0445052 0.812829
0.149772 0.0512131 1.20388
0.0910602 0.0165627 0.866487
-0.0298647 0.0214249 0.904262
-0.0596581 -0.0540079 0.840765
-0.0542253 0.0642634 0.962297
-0.0901051 -0.0275422 0.833922
0.092503 -0.0616839 0.806453
-0.00246891 -0.0530701 0.809749
0.0443129 0.0370298 0.779994
0.014581 0.0328061 0.781933
-0.0680692 -0.0274828 0.830909
0.150544 0.0832595 1.21426
-0.00772819 0.0969154 1.05865
0.0882184 -0.0617039 0.807256
-0.223722 0.017505 0.962313
0.173631 0.041343 1.23899
-0.186458 0.0170965 0.919898
0.0968006 -0.0530425 0.806217
-0.093847 0.0897395 1.00605
0.0105196 0.0637248 0.814174
-0.240641 0.0272563 0.984281
-0.133164 0.00772593 0.884008
0.107216 -0.00125479 0.83723
-0.136171 0.0797004 0.992625
-0.191738 -0.0382761 0.926163
-0.165685 0.00324004 0.893779
-0.179317 -0.00583494 0.893385
0.079563 -0.0314639 0.807879
0.154151 -0.0230253 0.818935
0.0848888 -0.00124891 0.829757
0.0978168 -0.00997342 0.825938
-0.174428 -0.0284645 0.88959
0.129737 0.0306636 0.909333
-0.0575596 0.0399022 0.917794
-0.143735 0.026039 0.904135
-0.23991 0.0224183 0.978314
0.00603548 -0.026556 0.770381
0.083888 -0.044423 0.807642
-0.0213491 0.0500319 0.956406
-0.16437 -0.0237862 0.878604
-0.181072 -0.0812387 0.9601
-0.00731146 0.0451929 0.949278
-0.117925 -0.0101509 0.857354
-0.0813181 -0.027531 0.833589
0.0557564 0.032034 0.739157
0.030821 0.011262 0.738535
-0.00664293 -0.00966225 0.771493
-0.0591359 -0.036108 0.82508
0.107563 0.00755244 0.843162
-0.0862265 -0.0144812 0.84494
-0.19876 -0.0481005 0.949287
-0.165711 -0.0712792 0.9463
0.150354 -0.0056213 0.826042
0.0805735 0.00312392 0.831113
-0.13346 0.0122599 0.888174
-0.244414 -0.0199771 0.93803
-0.106779 0.0258985 0.896248
-0.0419449 -0.023165 0.836053
0.127647 -0.0663424 0.813566
0.0623947 -0.0444839 0.810995
-0.22345 -0.0243706 0.91915
0.101127 -0.035781 0.806674
0.0552246 0.0111642 0.722824
0.127705 -0.018613 0.815506
0.0376065 0.0896553 1.11944
-0.239359 -0.0487967 0.973289
0.0230771 0.032793 0.781129
-0.142672 0.0122774 0.890199
-0.176752 0.0504667 0.965592
-0.0953766 -0.0101106 0.851254
-0.216556 -0.0386053 0.940287
-0.229862 -0.0819644 0.972681
-0.0214571 0.0549771 0.966177
-0.160939 0.0753962 1.00331
-0.0457233 0.0798305 1.00001
-0.0774917 0.0641361 0.957624
0.0881577 -0.0357683 0.806709
0.0853609 0.0542709 0.939156
-0.00240679 -0.00962649 0.764947
-0.0796852 0.0304563 0.899126
0.0948267 0.0654342 1.15404
-0.015435 -0.0487688 0.810446
0.114073 0.0211608 0.877559
0.0318378 0.0630539 0.794822
-0.249247 -0.024659 0.939019
-0.0111148 -0.0617361 0.810318
0.0148057 -0.0444139 0.809156
-0.168919 0.0356746 0.930428
-0.0197414 -0.0228257 0.809526
-0.199571 -0.0670727 0.956691
-0.239234 -0.0629921 0.971861
0.0666792 -0.0444586 0.809812
0.0882288 -0.0530743 0.807743
0.114054 -0.0444137 0.805612
-0.214591 -0.00593657 0.923048
0.161054 0.0779331 1.21285
-0.238905 -0.0245474 0.931412
-0.134858 -0.0788732 0.906365
-0.196524 0.0412602 0.974203
0.106973 -0.0100149 0.833037
-0.11856 -0.00127579 0.867389
0.0472471 0.0194914 0.731984
0.133686 0.0773895 1.19917
-0.191499 0.0171376 0.924068
-0.159946 -0.01029 0.879809
-0.113232 0.0899166 1.00902
-0.131869 0.0494836 0.930583
-0.224651 0.0566162 1.01242
-0.0420576 -0.0627657 0.840064
-0.0518731 0.106513 1.05317
-0.133909 -0.0466111 0.893994
0.0752863 -0.0314798 0.80898
0.0278076 -0.0531383 0.811862
0.0347839 -0.00943365 0.729244
-0.200339 -0.0767525 0.963871
-0.188943 -0.0104057 0.898431
-0.112651 -0.027707 0.843683
0.0630503 0.0695706 1.12423
-0.184483 -0.0620202 0.946954
-0.154362 0.0697895 0.980856
0.0624215 -0.061804 0.811267
-0.0372302 -0.0446747 0.81946
-0.107675 0.0398251 0.911925
-0.0502271 0.0746519 0.989296
-0.0466113 -0.0144887 0.84733
-0.0749726 0.0258584 0.894825
0.0191211 -0.0314567 0.809116
-0.0567788 0.106513 1.05304
0.0537864 -0.0661465 0.811887
0.138513 0.0614275 1.19263
0.0495181 -0.0142382 0.815295
-0.131756 -0.0101925 0.864073
-0.0862005 0.101607 1.05216
-0.00679025 -0.0573975 0.809896
0.0321172 -0.0401456 0.811243
-0.180174 -0.0332206 0.902151
0.11146 0.0443444 0.909444
0.118243 -0.0616174 0.802997
0.0614224 0.0444369 0.915699
-0.103103 0.0398218 0.912015
0.0526823 0.0743252 1.11533
-0.174281 -0.0617004 0.937768
-0.208345 -0.0434838 0.951067
0.0839544 -0.0531004 0.808839
0.0432496 0.0237001 0.737494
-0.0241077 -0.0618042 0.812188
0.117173 0.0821156 1.18574
-0.0678246 -0.0404519 0.824088
0.0401754 0.0413927 0.784928
0.114733 -0.0229614 0.816771
-0.108332 0.0492623 0.923378
0.16129 0.0462282 1.21698
0.079173 0.0857675 1.14786
-0.218911 -0.0151524 0.920134
-0.0208497 0.0260615 0.911089
0.0825192 0.0255948 0.875159
-0.145551 0.0970786 1.05699
0.0316659 0.0456695 0.785646
-0.0995928 -0.0145046 0.847264
-0.233629 0.0516457 1.00607
0.186318 0.0959445 1.2608
0.172005 0.072802 1.21721
0.00617048 -0.0487426 0.809529
-0.23931 -0.0535289 0.972768
-0.261164 -0.00134679 0.957941
-0.042577 -0.00571985 0.863859
