ply
format ascii 1.0
element vertex 1389
property float x
property float y
property float z
end_header
0.09014164 -0.007648442 0.8293612
0.05547834 0.025946079 0.8412671
-0.07129858 -0.07226818 0.8576573
-0.21526742 0.0084498245 0.9409715
-0.019022964 0.027171303 0.82440287
0.17167163 0.008287685 0.908768
-0.10716398 -0.07200016 0.88766015
-0.022884991 0.0036066181 0.8250007
0.08856363 -0.0343014 0.8077789
0.014208563 0.022868767 0.77670205
-0.17674476 0.05671786 0.974214
-0.17395815 0.03724977 0.9417596
-0.23262244 0.031794798 0.99069214
-0.056238316 0.06530181 0.9616217
-0.19787006 -0.014960864 0.9060785
-0.24385133 -0.027583258 0.9399515
-0.21760416 -0.016569534 0.9161386
-0.19639173 0.06238208 1.0059237
-0.19154477 -0.02245238 0.9000434
-0.09238934 -0.06732464 0.8735567
0.028096873 0.046166696 0.78513193
-0.23763122 -0.060543124 0.9675712
0.025631092 -0.03366861 0.8129479
0.043659497 0.009928778 0.83048594
-0.1725213 0.014658942 0.91380185
0.1914021 -0.0041527487 0.9228854
-0.10577214 -0.0015871269 0.8608665
-0.072719194 0.08024889 0.991221
-0.041413814 0.07380758 0.993034
-0.09557629 -0.076093726 0.87985617
-0.10023529 -0.014806986 0.84987193
0.0183426 -0.06361796 0.8147637
-0.23062608 -0.0035930108 0.9382781
0.017155537 -0.012738256 0.74418783
-0.04192225 0.031937644 0.9083509
-0.07887392 0.03303338 0.9108002
-0.024528526 -0.029117214 0.8167054
0.08686723 -0.011413578 0.8246143
0.08002935 0.0014975853 0.8321907
0.08124881 0.015875421 0.8548871
-0.16749533 0.06968828 0.998143
-0.12726966 -0.049157158 0.8868633
-0.19946186 0.044827037 0.98839307
-0.17694011 0.006356079 0.90358895
-0.054910596 -0.036415644 0.8281137
-0.008307637 0.0047007427 0.78190297
-0.092549704 0.025550142 0.891902
-0.14118238 -0.050861534 0.9042598
-0.13550267 0.08021008 1.0009668
0.009907615 -0.04957579 0.81521785
0.045312267 -0.022615897 0.8172454
0.12681782 -0.0021012002 0.83487624
0.013870536 -0.05597266 0.8110854
-0.1273644 -0.07714552 0.89387923
-0.05605561 0.077707715 0.991341
-0.10711207 -0.048477605 0.87070537
-0.040356196 0.027106985 0.90777886
0.17270984 0.004589481 0.91008914
-0.017491326 0.047784247 0.957733
-0.16950658 0.031295042 0.9234029
-0.24283987 -0.047088567 0.9729716
0.1361046 0.026705882 0.91270375
0.04881614 -0.0043776957 0.8181993
-0.011412886 -0.0064057284 0.7990369
0.05360848 0.054097064 0.9332101
-0.21471976 -0.020173952 0.9132282
0.001504413 0.057056714 0.7996104
-0.13452397 -0.024358813 0.85884076
-0.020925261 -0.0067358213 0.8005396
-0.17386933 -0.07909156 0.9628595
-0.033572733 0.027019296 0.9075436
-0.18477692 -0.0525688 0.9392906
0.010820051 0.0057383887 0.7563153
-0.08115531 0.062333494 0.9480543
-0.24843329 -0.046272162 0.9668766
-0.22878896 0.017682374 0.96920216
-0.086941436 0.037151843 0.91621625
-0.15340285 -0.022770572 0.87089354
0.12608232 -0.038540993 0.807327
0.051423036 0.04041687 0.85787165
-0.17986049 0.079623155 1.0294545
0.021948151 0.049995657 0.7874504
-0.1543564 -0.07585759 0.92535704
-0.105278 -0.03612279 0.8509725
-0.18261313 -0.063375525 0.9445724
0.0531935 0.0032833861 0.81963784
0.11410013 -0.0094516 0.8200804
-0.06515101 0.003493146 0.8725778
-0.13510579 -0.07969618 0.91033536
-0.020859594 0.04607704 0.9408689
0.09166106 -0.006341072 0.8272107
0.104417294 -0.031514958 0.81132674
-0.011451935 -0.024983961 0.80996746
-0.24576108 0.029830236 0.9934756
-0.06379281 -0.061054524 0.8536118
-0.22432607 -0.051021986 0.96059513
-0.0955657 -0.032032244 0.8381203
-0.015336835 0.073659025 1.02384
-0.10553485 0.07682965 0.97618186
-0.1916104 -0.07103759 0.96276987
0.082409896 0.014780504 0.8545356
-0.1325409 0.007168987 0.8757583
-0.104443684 -0.046727132 0.8708274
-0.03161356 0.096434146 1.0537893
-0.110955894 -0.009514134 0.8551557
0.17622475 0.00016404223 0.9151311
-0.05405355 0.08758306 1.0322956
0.17363752 0.013664493 0.92353004
0.09169072 0.00017069792 0.8375508
0.11578945 -0.0047881408 0.8346033
-0.1977995 -0.05375314 0.9512128
0.1874093 -0.004578138 0.9284067
-0.17465952 0.020878255 0.91916007
0.1462633 0.02890449 0.9236678
-0.021498198 -0.049924314 0.8149413
-0.12442803 -0.021633908 0.8552671
-0.18992555 0.032867104 0.95944476
0.03220426 -0.057381954 0.8130659
-0.12131314 -0.06112051 0.8866287
-0.04501158 0.08017711 0.999296
0.0009794473 -0.058112036 0.8157325
0.008119763 -0.016608097 0.81171495
0.07445312 0.022865843 0.8379816
-0.022040088 0.08891713 1.0463096
-0.108977444 0.033421356 0.91078264
-0.16297053 0.08292891 1.0298055
-0.061894838 0.07160715 0.97017616
0.025562981 -0.06340423 0.8155099
0.15750648 0.017054237 0.9084983
-0.019751495 0.08299191 1.0283067
-0.016674237 0.082705505 1.0183656
-0.23137541 0.037016347 0.9926903
-0.10504458 0.08159637 1.0052557
0.08504541 -0.057533357 0.8161427
-0.25148296 -0.0044881376 0.9588866
-0.06493813 0.09000588 1.0323664
-0.07922702 -0.037313152 0.8312205
-0.073716186 0.023643289 0.8955084
0.038949966 -0.035319597 0.8155197
0.054621015 0.025010707 0.83146423
-0.19166723 -0.008998285 0.89677006
-0.19658057 -0.06771697 0.9563081
-0.14074716 -0.024476055 0.8649782
-0.13972421 0.0032795114 0.8837511
0.12111075 0.019773904 0.8766973
0.08603999 -0.05094881 0.8105278
-0.24209765 -0.05318752 0.96704674
-0.04804188 -0.07393534 0.85606515
-0.028208695 0.099884786 1.0685253
-0.10679515 0.0036012796 0.8721161
0.059610832 -0.061045006 0.8153784
0.083004765 0.050853405 0.9220985
0.059706815 -0.04652882 0.80964863
-0.23952912 0.04079661 1.0088888
0.12809743 -0.020912498 0.81909996
-0.11219669 -0.0050893445 0.86142004
-0.02075882 0.05367618 0.9615824
-0.16266972 -0.02133065 0.8769927
-0.22231197 -0.07202114 0.9658181
-0.11687946 -0.045388784 0.88166016
-0.14527196 -0.02481474 0.8674871
0.0025104387 0.006544497 0.7642679
-0.016411092 -0.0074244007 0.81864595
-0.13850385 -0.05819211 0.89629525
-0.03869003 0.013481803 0.88908345
0.014048508 -0.046219796 0.8131274
-0.13968976 -0.021860193 0.86527604
0.023071889 0.021234203 0.7477096
-0.033412777 -0.055493947 0.81969243
0.09142044 -0.017252995 0.8193193
-0.14512141 -0.03996753 0.9036938
0.14594296 -0.0052248025 0.8278347
-0.16114679 0.008005977 0.89567274
-0.14499511 0.05773913 0.95030886
-0.14896505 0.031660628 0.91423726
-0.19609605 -0.049050532 0.9434994
0.034271576 0.020733513 0.8248569
-0.1564692 0.09210971 1.0319302
0.120759904 -0.042432126 0.8090852
-0.18262619 -0.08145431 0.96444935
-0.0021334696 0.021503488 0.7798872
0.15090455 -0.0051685814 0.85489494
-0.2391903 -0.061484154 0.97462
-0.1828564 -0.008772723 0.8916713
-0.016688997 -0.06768194 0.8294847
-0.15475078 0.059414018 0.9648554
-0.13655433 -0.073664196 0.91030973
-0.052193295 0.06732421 0.9798026
-0.21722847 -0.021161849 0.9179933
-0.23076142 0.009973332 0.9592063
0.034541484 0.0066940985 0.73993665
-0.13344415 0.06978638 0.95831347
-0.20485455 0.032783702 0.9825125
-0.14625847 0.050734084 0.93975794
-0.13447596 -0.020604549 0.8595909
0.1190176 0.035085555 0.9163558
-0.24516167 -0.055055674 0.9725034
-0.19452713 0.075938694 1.0434287
-0.23590797 0.011144083 0.9622138
-0.15413423 0.003183683 0.8925958
-0.03197852 -0.042743932 0.8155704
0.032183547 0.0013373219 0.82326066
-0.0663383 0.10519286 1.0587649
-0.23721188 -0.057908602 0.97399056
-0.019356253 0.029128795 0.80559677
-0.047355123 -0.0687002 0.84636074
-0.21326074 0.02866255 0.97571534
0.16058242 0.0067133494 0.8999087
-0.25061825 0.0032811943 0.9643594
0.09824431 0.040895414 0.90977156
0.12901576 -0.02980641 0.8113798
-0.25079772 0.021122674 0.99118114
-0.17881289 -0.028342161 0.89394295
-0.24931449 -0.0142798545 0.9455742
0.16327927 0.015880944 0.9138094
0.0016489569 -0.009398183 0.7607661
0.063126326 0.02503313 0.72526354
-0.23583545 0.032241855 0.98953736
0.14503416 0.018073747 0.9116151
0.07952686 -0.04985637 0.8129642
-0.14731668 -0.00065976335 0.8776011
-0.22552413 -0.0045174416 0.9360276
-0.049095977 0.10020571 1.0603106
-0.11230941 0.028198741 0.9035837
-0.053344265 -0.045428164 0.819259
-0.07580289 -0.033584516 0.82725155
-0.24698511 -0.05200961 0.9680179
0.091190055 -0.007623249 0.8298444
-0.017391741 0.062197063 0.9816271
0.026255202 0.0029384051 0.8208462
-0.013432556 -0.050866842 0.8117507
-0.24744987 -0.025419189 0.9495805
0.05781796 0.045537718 0.8903242
-0.054172844 0.006292704 0.87763584
-0.2082857 -0.072779514 0.96668977
-0.055145457 0.033466227 0.9130934
-0.09069706 0.023820441 0.8905207
0.10238825 -0.04275593 0.8068069
0.13026118 -0.026172329 0.81398916
-0.11533715 -0.049165092 0.88265103
-0.17232598 -0.067245 0.93481636
0.10778944 -0.001606608 0.8403512
-0.1355101 -0.009653693 0.87025326
-0.042615917 0.054510824 0.9560961
0.121483326 0.008438172 0.8514967
-0.00042034755 -0.041793555 0.81050724
0.10482787 0.01918163 0.87433016
-0.06608679 0.063719556 0.9752745
-0.14392966 -0.06379383 0.9054588
0.037415545 -0.020105606 0.81566447
0.0015298466 0.048500497 0.7897538
-0.13137995 -0.07600063 0.9090631
-0.025855612 0.018202612 0.7986075
-0.20911768 0.041562777 0.9884705
-0.0010815035 0.0023311207 0.77152836
-0.040388606 0.022332314 0.9013479
-0.16382095 0.088929735 1.054291
0.08047507 0.049234327 0.9262966
0.038089503 -0.019376924 0.8152921
0.16227666 0.021649642 0.9151592
0.035619758 -0.0020799118 0.7359775
-0.240709 -0.027125308 0.9348204
-0.24644569 -0.023916217 0.938362
-0.12857203 -0.0219195 0.856117
-0.12948559 0.06546791 0.9556197
-0.03236704 -0.06795374 0.839444
-0.11521748 -0.027305258 0.8513985
-0.04971759 0.0075599873 0.8488461
0.11883758 -0.031065423 0.810421
0.109516725 -0.03382178 0.8170604
-0.19286379 -0.04859231 0.93804884
-0.045457028 0.052275084 0.93519616
-0.18896174 0.07482432 1.0439743
0.053859334 0.048919793 0.9449294
0.14092214 0.030935504 0.92300445
-0.24499655 0.023531334 0.99384904
0.13623777 0.026758455 0.91333747
-0.089995034 0.06260015 0.9572256
-0.22250554 -0.003970854 0.93327296
-0.07619545 -0.017060734 0.8434098
0.01558451 -0.0486705 0.81282866
-0.05339254 -0.04169059 0.82207936
0.06773371 0.025571406 0.7244883
-0.22670801 -0.063973024 0.96458924
-0.20919897 0.05262131 0.9966634
-0.17923771 -0.07635674 0.9600037
-0.090579316 -0.053694393 0.8624327
-0.07646442 0.04450395 0.9208789
-0.0706004 0.10361765 1.0634097
-0.16868088 0.04804535 0.95079064
-0.033105865 0.030660797 0.83073354
-0.14766546 -0.07443908 0.91825
-0.14077576 -0.06688185 0.9022724
-0.0645335 0.09570462 1.0462606
0.16055192 -0.013170272 0.8706586
-0.0064466763 0.044034567 0.7947004
-0.037932653 0.073906556 0.99589086
0.121702015 0.0015361429 0.8388127
0.059733536 0.01600651 0.8411673
0.052386634 -0.038377054 0.8157606
0.12910071 0.033654958 0.9123786
0.03302468 -0.04032511 0.8149887
0.11122794 -0.054833736 0.8041451
-0.09738642 -0.05823806 0.86950976
0.08396299 -0.038801994 0.8090428
-0.014923134 0.07863254 1.0113406
-0.2029063 -0.012243609 0.90396416
-0.046041206 -0.045810778 0.8169426
-0.060524862 -0.039860472 0.8201467
-0.04892417 0.021195548 0.8333983
-0.2317252 0.030639185 0.987408
0.0793568 0.028556935 0.8705506
0.027842112 -0.009805401 0.8182262
0.031779516 0.006730521 0.8232597
-0.053110484 0.009534654 0.8867646
0.00026112818 0.06546278 0.81570363
-0.1618264 0.024145762 0.9080179
0.15758562 0.019314107 0.9217272
-0.06475246 -0.066316076 0.8534485
0.13422745 -0.046139337 0.82247114
-0.22733197 -0.018715946 0.9245948
-0.019121623 0.078426205 1.0076466
0.06870762 -0.021644227 0.813292
0.0155915525 -0.043778718 0.81312144
-0.11126204 -0.004614509 0.85729253
-0.01086583 -0.06755953 0.8225553
0.0060968916 -0.03595526 0.80788565
0.13520242 0.034506105 0.9237668
0.06617981 -0.059295382 0.8115806
-0.16265126 0.06151997 0.9842326
-0.045622963 0.053323913 0.9414942
-0.15850797 -0.045389064 0.9158589
-0.048735946 -0.06329308 0.84530956
0.0029264407 0.0023637866 0.762294
0.1295123 0.007168038 0.8512957
-0.09615411 -0.026308082 0.842407
0.078528315 0.0218687 0.8555191
-0.1897892 -0.06423096 0.95167077
-0.02964721 -0.027295519 0.81721276
-0.102737814 -0.018170077 0.8414073
-0.13167018 0.016265301 0.89352447
-0.10083941 -0.0128049385 0.8509401
-0.16014788 0.07513772 0.9895032
-0.14507812 0.05357022 0.9456948
0.09575759 -0.035363443 0.8117018
0.14576754 0.025798546 0.91082555
0.121818155 -0.026133323 0.8113331
-0.112817094 -0.06306532 0.8762807
0.12939973 0.0322164 0.91363764
0.10146996 0.007852031 0.8395898
-0.17895395 -0.027771251 0.90550244
-0.17366 -0.021661833 0.8846015
-0.2111422 0.040079065 0.9832742
0.119726814 -0.040367253 0.8093921
-0.11695288 -0.07245481 0.8876667
-0.08381654 -0.0042844824 0.8534526
-0.045994554 0.0988962 1.0496442
-0.12513147 -0.047100563 0.88304037
-0.15820192 0.022609176 0.9108029
0.10523472 0.043363485 0.9169717
0.048394255 -0.063387714 0.81437176
-0.11203447 -0.026493534 0.8480103
0.052051723 0.012490509 0.82700115
-0.15602112 0.049920037 0.9453318
-0.054861803 0.044545747 0.92270625
0.13412401 0.029402366 0.9158586
-0.052047856 -0.04379969 0.82172346
-0.20320298 -0.06377576 0.9592412
-0.16740622 -0.07576787 0.9327668
-0.16413116 -0.03031755 0.8918965
-0.13526854 0.0032328002 0.8782881
-0.25078866 0.0060887467 0.9694041
-0.08878284 -0.014635703 0.84363
0.05970043 0.058412645 0.9469663
-0.09894771 0.08927727 1.0157981
0.059487484 -0.056325827 0.815195
-0.072744705 -0.036656685 0.83304936
-0.08322669 -0.008634023 0.85199565
-0.10730134 0.007095063 0.873166
0.104177356 0.041482747 0.91816497
0.011669474 -0.059940483 0.8173916
-0.044024933 -0.022463784 0.83312905
0.051921736 0.010987373 0.73147345
-0.100707196 0.0057605356 0.868996
-0.16346201 0.037105575 0.92787576
-0.16595842 0.05329035 0.9592936
-0.19260973 0.03647344 0.95722425
-0.07040456 0.086211585 1.0017368
-0.028340695 -0.009395365 0.8214622
-0.10757355 0.04972798 0.9297666
-0.0033733824 -0.06910313 0.82479995
-0.07245812 0.07486224 0.9689007
-0.12714021 -0.048654057 0.88697016
-0.12864892 -0.024715004 0.85646594
-0.13678591 0.049953785 0.93410426
0.025098305 -0.03842576 0.81170917
-0.11173314 -0.07257032 0.88283914
-0.07397557 0.011923884 0.87923384
-0.15594864 0.04848794 0.94800735
0.013344111 0.027110705 0.7667266
-0.23891607 -0.055881783 0.9687673
0.031333506 0.01253626 0.7390117
-0.08035437 0.043198504 0.9153403
-0.11066939 0.020719714 0.89608157
-0.09774917 -0.0045216726 0.8529291
-0.006607865 -0.048101272 0.8120357
0.008940826 -0.050737962 0.8125925
-0.21560372 0.012522903 0.9449301
-0.2217422 -0.05268017 0.9641374
-0.1608179 0.004302166 0.89283067
-0.2032962 0.013573887 0.93666756
-0.082698695 0.10476002 1.0655203
0.04770704 0.013955073 0.73239446
-0.07202198 -0.014147398 0.8476518
-0.078820355 -0.06620401 0.8607397
0.004292446 -0.013145698 0.8180469
-0.25068602 -0.028280485 0.9390596
0.14170475 0.021691464 0.9133942
-0.1868524 -0.07050816 0.94752693
0.09017353 -0.0412583 0.81082296
-0.044659797 -0.04085899 0.82399994
0.056266755 -0.0043682633 0.8217896
-0.109295994 -0.05207883 0.87337023
-0.06973761 -0.0643716 0.85549873
-0.03505029 0.0759169 1.0001839
0.12742703 -0.03277399 0.8114803
-0.18822338 -0.016245201 0.8948567
0.010094209 0.055232204 0.7915704
-0.18034689 -0.01833158 0.8848992
-0.17288005 -0.07444005 0.9442936
0.0562481 0.025675494 0.73527765
0.13426295 0.003966207 0.8461489
-0.12485773 0.06485654 0.9567799
0.119434595 -0.0057645254 0.83548325
-0.19403385 0.023525333 0.93471766
-0.03766565 0.010360252 0.89046144
-0.04661635 0.028928392 0.90439814
0.06088485 -0.04771791 0.8155572
-0.14496687 0.022433702 0.9049601
-0.20897289 0.003880415 0.92850727
-0.0039814147 0.0031377696 0.7779193
-0.034367334 -0.018278468 0.83309144
-0.19187286 -0.025640365 0.91265076
0.039537255 0.026020477 0.7430874
-0.0641891 0.05648407 0.9378211
-0.24842952 -0.040936038 0.9654813
-0.14765209 0.07279646 0.9751449
-0.029041432 -0.019079864 0.8249535
-0.16913886 0.0433137 0.94970554
-0.005824159 0.010852373 0.78387594
-0.05139183 -0.019983752 0.8387618
0.10711308 0.036021788 0.907309
-0.02250282 0.014666648 0.8235806
-0.058476117 -0.039366174 0.8220373
-0.09438119 0.05419077 0.9273545
-0.19264305 0.017946351 0.92850375
-0.24275315 -0.046614785 0.97605956
-0.051498737 0.02157407 0.9020245
-0.22666912 0.05166725 1.0046724
-0.15792154 0.00744743 0.89411515
-0.15576701 -0.035197668 0.89283025
-0.045135804 -0.069129184 0.8464389
-0.24682133 -0.035362005 0.94629604
0.020886395 -0.006279989 0.79688543
0.031429805 -0.011460384 0.7362555
0.09743443 -0.014979327 0.8212365
-0.1687433 -0.010655029 0.8877064
-0.17201525 -0.04603292 0.92707205
-0.03211133 0.08345473 1.0110493
-0.037792515 -0.037861608 0.8226894
0.082378685 -0.015748741 0.8135686
-0.031356264 -0.041202217 0.81480545
-0.052209962 0.07653173 0.99358565
-0.07341356 0.059954215 0.9472651
-0.08910954 0.033790868 0.9056321
-0.24645227 0.023153193 0.99435145
0.13724892 -0.020022742 0.8236319
0.04392725 0.0027785706 0.8231614
0.09761944 0.00315992 0.84325653
-0.15766427 0.061825126 0.97410846
0.11905383 -0.05175356 0.81096727
-0.18510608 0.06577309 1.0003779
-0.049728267 0.01886015 0.8935648
0.012971402 -0.044264596 0.8109031
-0.10626794 0.054117784 0.9336102
-0.08115194 0.0013799286 0.8727867
-0.01768529 0.066655144 0.9845118
0.009633648 -0.03353685 0.81091684
-0.16055687 -0.009824088 0.8811061
-0.21834745 -0.052526485 0.9567382
-0.17807846 0.01025016 0.9069342
0.09721103 0.041963134 0.91314673
-0.20404285 0.06422554 1.0240242
0.050496906 0.022361439 0.7397452
-0.14945441 0.038188517 0.92514604
0.029658264 -0.032431178 0.81653464
0.030018141 -0.04730808 0.8150607
-0.09314935 -0.032858204 0.83656627
-0.13775215 0.049716197 0.93358123
0.09442552 0.016922755 0.856583
-0.08594933 0.010717565 0.8777886
-0.033654425 -0.051653095 0.814971
-0.025230162 -0.0010197224 0.82233465
0.011488812 0.03965303 0.78433645
-0.12123274 0.058798946 0.9345897
0.12253743 0.027148284 0.916241
0.0987343 0.008221885 0.85044146
0.1798284 0.012132547 0.92849356
0.059475303 -0.0221665 0.8105138
-0.04366486 0.013657408 0.89112055
-0.18603376 0.04762636 0.9776339
-0.0658542 0.05137628 0.9340455
-0.09830737 0.039032605 0.9133037
0.0022840248 0.016085418 0.7750924
0.008985529 0.03996934 0.7878818
0.06668251 0.047103055 0.89066195
0.034162316 -0.0048696673 0.7348057
0.1287721 -0.035385057 0.8039229
-0.14495051 -0.06874435 0.9125505
0.04363043 -0.012572864 0.8181128
-0.053466417 -0.040310938 0.82453907
0.030669838 0.058078907 0.79483676
0.014750142 0.033594932 0.78176206
-0.21847893 -0.014587714 0.9189222
0.072439514 0.048623394 0.9186667
-0.033840246 0.055068888 0.9432536
0.017817853 -0.04082371 0.8113583
-0.11947243 0.014844544 0.8875287
0.030846884 -0.017515637 0.8143361
-0.21159318 0.01526759 0.948093
-0.0030343616 0.07609767 1.0081292
0.021600422 0.026190242 0.7567964
-0.064095765 -0.0356162 0.82545704
-0.24047437 -0.045371473 0.96607095
-0.21660261 0.008881023 0.94644964
-0.17958955 0.026401058 0.928683
0.08666804 0.027023863 0.88243747
-0.035225965 0.024895718 0.90309894
-0.08356691 -0.024711808 0.83596784
-0.14518797 0.011958662 0.8990269
-0.14022169 0.025946371 0.9075513
0.015827153 0.05246832 0.7939721
-0.098869495 0.045354433 0.91833377
-0.050980642 -0.017372888 0.8465624
-0.2468677 -0.004086558 0.95090216
-0.23723531 -0.010694724 0.9313989
0.059600376 0.016179862 0.7261679
0.0074089863 -0.002937003 0.7546753
0.039694108 -0.06161161 0.81759
-0.012266104 -0.021158826 0.8089191
-0.16275004 -0.019237295 0.8749824
-0.12528837 -0.07739916 0.90625364
-0.039022725 0.01938754 0.901738
-0.13934213 -0.07338996 0.90867895
-0.24050306 0.012530476 0.97351
-0.10038061 -0.071290635 0.8813337
-0.21931121 -0.04817067 0.95645785
-0.23245388 -0.01694887 0.92816937
0.041518442 0.0019119706 0.819618
-0.027725015 -0.051447403 0.8130156
0.15751566 0.019810652 0.9126386
-0.104208 -0.057755772 0.8754792
0.03251796 -0.022522738 0.81440496
0.015336768 0.01614239 0.7530546
-0.21967246 -0.070940845 0.96970123
-0.023756614 -0.031712133 0.81725496
-0.20928828 -0.07374507 0.9711837
-0.00335766 -0.028698439 0.81088096
-0.05727395 0.060672723 0.9481889
0.12581788 -0.019372802 0.8168836
-0.09782808 0.10605816 1.0661219
-0.12533201 0.06257049 0.95159453
0.05099391 -0.00924062 0.8207327
0.051698357 -0.044082362 0.8144608
-0.1787155 -0.07157135 0.95193815
0.054205384 0.019916916 0.7340222
-0.050858147 -0.041332792 0.82267517
0.030002302 -0.008531778 0.7373569
-0.2480258 0.024413422 0.98560536
0.062215567 0.0019311062 0.8236858
0.114003204 -0.05296359 0.8049535
-0.11706346 0.06359971 0.9591812
-0.20048127 0.06539628 1.0203638
0.038938884 -0.0024728586 0.8165083
0.0737027 0.04142242 0.89984643
-0.024977967 -0.06966769 0.83531576
-0.06816313 -0.0316199 0.82551116
-0.115651384 -0.012918839 0.85679156
-0.116527714 -0.067681625 0.89429456
-0.048340578 0.084219396 1.0105045
-0.24296565 -0.03527636 0.9471697
-0.028361997 -0.04800102 0.82158804
0.13587306 0.03213896 0.9182719
-0.23655795 -0.0641867 0.96742135
0.05906229 -0.046419077 0.8144249
0.030761197 0.06505612 0.7983566
-0.22324158 -0.026571821 0.92491436
-0.17276846 0.037200443 0.9409158
-0.1900134 -0.0032441798 0.90561
0.055374097 0.03183619 0.73615444
-0.073591374 -0.031631075 0.83097655
-0.16283341 0.026984705 0.9164524
0.087316364 0.034652125 0.8973095
-0.031392492 0.026951313 0.9087659
-0.19158798 -0.052839275 0.9460277
-0.16313581 0.031134896 0.9245936
-0.25056595 -0.04719609 0.97525084
-0.13051444 -0.0695763 0.8952346
0.14531799 -0.01005869 0.8328131
-0.09348565 0.0457983 0.9148569
-0.12226528 -0.019399097 0.8497527
0.06153789 -0.0066210143 0.82629347
-0.23235463 -0.0038294564 0.9418731
-0.12873228 -0.07033749 0.9002967
-0.06723582 -0.016621066 0.8372387
0.0014527999 -0.058859047 0.81710964
-0.10952968 -0.05044405 0.8764737
-0.20452482 -0.022008685 0.90467054
0.102437444 0.0025859307 0.84332424
-0.039962985 0.07740454 1.0155526
-0.1430462 0.038702738 0.9250053
0.09312672 -0.05516419 0.80815494
0.13401623 -0.020952983 0.825361
-0.13102491 0.07795242 0.98975044
-0.030195024 -0.002711448 0.83075315
0.06853918 -0.041588705 0.8106899
-0.091300026 0.060317446 0.9329631
-0.21055445 0.030343961 0.97516674
0.12158739 -0.016954318 0.8230158
-0.08281351 -0.027487779 0.8352367
-0.22364798 -0.054248396 0.9659399
-0.05568426 -0.03743039 0.8297491
0.06002501 0.025404379 0.7363126
0.044472054 0.006224112 0.7301682
0.054010093 0.024879066 0.73521286
-0.074569486 -0.066782564 0.85838705
-0.14688128 0.05992208 0.9569612
-0.16309297 0.012349499 0.8997603
0.01774666 0.046470877 0.7949406
-0.19418707 0.02165384 0.93793654
0.007462485 0.026013657 0.77192247
-0.12451119 -0.0030725761 0.86245424
-0.009357614 -0.021316867 0.81583834
-0.1945905 -0.04465857 0.94229305
-0.1659872 0.052480675 0.9597226
0.029470935 -0.0063132234 0.73736686
0.12062662 -0.054496735 0.80586576
-0.07912987 -0.05193343 0.8573606
-0.15061033 0.0063190185 0.8850094
-0.1289175 0.10010625 1.0501884
-0.20611198 -0.002119753 0.9257615
-0.1306291 -0.019616902 0.8591506
-0.20115906 -0.057597034 0.95834994
0.011352201 -0.024886161 0.80701506
0.03011616 -0.028469665 0.8153692
-0.05303431 -0.045684326 0.82142735
0.042034328 0.0069019883 0.73598826
0.16338941 0.011758166 0.907913
0.10910855 -0.051409915 0.806537
0.030911777 0.01535904 0.7477763
-0.14164153 -0.07842171 0.9128474
-0.14751871 -0.04729898 0.90543467
-0.18882552 -0.071888424 0.9617807
0.07925675 -0.059014667 0.8102851
-0.07197586 0.033410545 0.90142447
-0.13517183 -0.020304034 0.85899055
-0.022907425 0.09091424 1.0383612
0.011298868 -0.05733146 0.8150529
-0.19891755 -0.045005057 0.94168615
-0.1056611 0.05666986 0.9560367
-0.11592246 -0.015371386 0.85209125
-0.0861169 -0.054240912 0.8640651
-0.044733107 0.050685216 0.9488391
-0.033747144 -0.052956168 0.8163074
-0.21080531 -0.045027096 0.94174576
-0.02186241 0.027858939 0.8303356
-0.06140636 0.09086438 1.0292907
-0.19257645 0.076525144 1.04633
-0.08720345 0.06629849 0.9664113
0.020187652 0.0642783 0.8109577
0.07581748 -0.06189807 0.8121224
-0.21944104 0.037363905 0.991136
-0.064216465 0.0035267067 0.87604344
-0.23020758 -0.049751755 0.9633255
-0.00083919894 -0.051496837 0.81249124
-0.11138102 0.08360415 0.98616016
-0.06520103 -0.06694621 0.8464152
-0.06601437 0.09716885 1.0433183
0.043259714 -0.028859165 0.8182516
-0.18812795 -0.058722187 0.94264555
0.088145725 0.015128911 0.8483589
-0.21692774 -0.033224873 0.92191815
-0.040491335 -0.06670392 0.8405727
-0.112865366 -0.05005276 0.8791413
-0.12958844 -0.054191124 0.8895579
-0.22031942 -0.07676836 0.9715992
0.00010230695 0.01664443 0.81557655
-0.17100619 0.09257604 1.0476748
-0.15268797 -0.04678654 0.90905356
-0.12637642 0.0428079 0.92045146
0.10285479 -0.060353715 0.8070501
-0.043438658 -0.03296857 0.82806784
-0.072156936 -0.028561829 0.8307967
0.14067034 -0.025040913 0.82168555
-0.10754517 0.0130982585 0.875952
0.018715568 -0.0120382365 0.8160539
-0.13695419 -0.044677816 0.896299
-0.012779521 0.09593393 1.0556213
-0.056134995 0.016827282 0.89087254
0.0146321 -9.2473114e-05 0.7512954
-0.19482636 -0.0025770657 0.9088995
-0.042392734 0.01719755 0.89204437
-0.044476345 0.021791901 0.90517336
0.13580385 -0.023706604 0.81481975
0.11605067 0.0067112483 0.8557004
-0.24300094 0.017238284 0.9775004
-0.10318766 -0.022137007 0.8434965
0.08187666 -0.020022774 0.8103691
0.011984721 -0.011011547 0.80436087
0.087088734 -0.056200407 0.8100152
-0.22234374 0.030891152 0.9855543
-0.06997535 0.09600787 1.0308621
-0.04363215 -0.06512114 0.83971155
-0.10483925 0.089799136 1.0050395
-0.18224575 -0.07551277 0.9591004
-0.21117276 -0.023711096 0.9075654
0.012730593 -0.062266443 0.8198472
0.057283454 0.010486185 0.72546655
0.06246582 -0.0555932 0.81364214
0.043115325 -0.02476476 0.8179518
-0.0037164222 0.025363047 0.8275033
0.08831543 -0.057636317 0.80990916
0.04939044 0.01696202 0.8289839
-0.21290909 0.056568872 1.0115329
-0.044899832 -0.06960026 0.85151696
-0.012225131 -0.045430478 0.8089284
-0.16331828 0.08135267 1.0254579
0.11199165 -0.030898187 0.8127666
0.04578226 0.031249333 0.7419434
-0.23072587 -0.025802055 0.9279432
-0.022815315 -0.060368717 0.8280353
0.09385686 -0.048837878 0.81203765
-0.06654799 0.028347272 0.90390164
-0.21286255 -0.022893803 0.9170564
-0.055253934 0.041148335 0.917042
-0.20730482 -0.06086968 0.9619755
-0.22993897 -0.07695072 0.97152853
-0.029934634 -0.03308159 0.82716066
-0.15873131 -0.002624652 0.8860297
0.12650184 -0.03263932 0.8103812
-0.05217683 -0.07121562 0.851799
0.06415632 0.015355486 0.7270371
-0.10207919 -0.0072995005 0.8570041
-0.010989219 -0.0587556 0.8169641
-0.04607465 -0.029843118 0.8329542
-0.06890619 0.019921832 0.889961
-0.13514644 -0.008287521 0.8567788
0.06035182 -0.041382253 0.8130315
-0.19742738 -0.06580294 0.9573944
0.08901761 0.017979417 0.8691493
-0.08822197 0.022878138 0.89045846
-0.20248991 -0.022833908 0.90545386
0.07991009 -0.019245252 0.81392634
-0.15408695 -0.044410333 0.91124284
0.06732022 -0.023742799 0.81684434
-0.12191339 -0.0037659635 0.8630492
-0.17330666 -0.051292658 0.93497926
-0.13920406 -0.0420841 0.8993609
-0.23051873 -0.07237355 0.96884805
-0.18023013 -0.017164348 0.8885393
-0.08017966 0.018020779 0.888943
-0.045472328 -0.07062273 0.84400994
-0.05398183 0.011236612 0.87972677
-0.07331 -0.07061892 0.8607901
-0.005509387 0.011032488 0.8201376
-0.19263835 -0.016837118 0.90035826
0.0030961619 -0.06642109 0.8207425
-0.07860503 -0.026115654 0.8333047
-0.012416144 -0.008216096 0.7736962
-0.20974351 0.051411733 1.0018975
-0.08105811 -0.032912318 0.8315587
0.06659408 -0.053513627 0.810774
-0.14641558 0.038035903 0.9249496
0.0017871076 -0.052437503 0.81129646
-0.18947753 -0.024222165 0.8975875
0.0073946626 -0.06366699 0.8194825
-0.021812197 0.06461272 0.9854356
-0.04478989 0.016865803 0.82939196
0.064082175 0.0034643342 0.82712805
0.10572123 -0.021973748 0.82016045
-0.13485335 -0.05786661 0.89451146
-0.03720497 -0.048476726 0.81529
0.08233489 -0.057243142 0.8105635
-0.052835092 -0.039109524 0.8316875
-0.08857055 0.029891975 0.90156037
-0.07131501 0.06096144 0.9514311
-0.20426552 0.062693566 1.0159807
0.16032839 0.02031537 0.91568714
-0.19750609 0.04484089 0.9782335
0.15305991 0.012797671 0.91286623
-0.23818819 -0.03877754 0.9501135
-0.039835785 0.02880926 0.909198
-0.12665305 -0.009399544 0.8599607
-0.23934181 8.489938e-05 0.9478952
0.03007715 0.018765628 0.74859345
-0.16481896 -0.07104863 0.9334757
0.101214714 -0.016009068 0.8213409
-0.24619119 0.0067064185 0.9690816
-0.11425529 -0.0098256115 0.8565563
-0.09078589 0.055943776 0.93323123
-0.22575474 -0.05334454 0.96444476
-0.03300927 -0.018012602 0.8169394
-0.081768736 0.022188801 0.8907848
-0.05357618 0.025238339 0.8960233
0.1389869 -0.0143663855 0.8253989
-0.1875459 0.09354166 1.0542961
-0.18048976 -0.021057397 0.89003
0.09990161 -0.01350923 0.8299166
-0.053952023 0.08627718 1.0291919
0.052044105 0.015809428 0.82953113
0.05270102 0.027838295 0.83596426
-0.018626891 -0.051422957 0.8157457
-0.22884838 -0.07336988 0.9730324
-0.059643783 -0.0716022 0.8542178
-0.10609479 -0.005991128 0.85360146
0.04323553 -0.035535865 0.81459147
-0.09400693 0.0016374178 0.8667867
-0.14217648 0.08091373 0.9903226
-0.18221347 -0.07505425 0.9603144
-0.032968596 0.07126472 0.9868498
-0.22572513 0.033274807 0.985172
-0.096761815 -0.023704687 0.8397792
-0.2156033 -0.06704277 0.9655069
0.09911162 0.023620727 0.8909821
-0.021266347 -0.05144823 0.8137138
-0.09686396 0.041876078 0.9142155
-0.0015490346 -0.05327869 0.8093598
-0.08752523 -0.02705023 0.8397307
-0.22192012 0.024426462 0.9828972
0.11906503 -0.05543264 0.81093216
-0.059005592 -0.055025287 0.8419525
-0.15391977 -0.07172224 0.9222032
-0.2084366 -0.0254659 0.912395
-0.017963512 0.02206455 0.82749057
-0.14067681 0.058852397 0.9504047
-0.11104136 -0.0012836847 0.86763823
0.05938148 0.019376446 0.8460678
-0.05834138 0.07083695 0.98422
-0.03175588 0.037196897 0.9207323
0.06715058 -0.008745314 0.8178388
0.005080156 0.0051449365 0.76584405
0.028788732 -0.056825466 0.81240606
-0.13111389 -0.048107836 0.89532626
-0.17409696 0.024941534 0.9226422
-0.19789733 -0.0062531508 0.9053359
-0.12054528 0.04051394 0.9177321
0.07069227 -0.04351465 0.8123064
0.10138246 0.036085296 0.9121382
0.0436973 -0.02861873 0.8165444
0.02355719 0.040207393 0.78838557
0.12605585 0.0028317359 0.8398439
0.022061564 0.0126884775 0.7508082
-0.055366315 0.036897186 0.9151056
-0.10173115 0.06645776 0.94624066
-0.022381566 0.022674743 0.84000987
-0.16063853 -0.058316655 0.9235033
-0.05381185 0.052864846 0.93357503
-0.010437905 -0.05576487 0.81539243
-0.0093191555 0.067555584 0.9923842
0.0362692 -0.05971234 0.81624186
-0.15705754 0.008814426 0.8869882
0.031129435 0.012187058 0.73940897
0.11910371 -0.019921863 0.8182094
0.01810842 0.01522496 0.75859326
-0.21731187 -0.05713399 0.9604583
0.04414997 0.01690797 0.7395954
0.15322793 0.011198422 0.9150528
-0.07268558 -0.024458509 0.83430564
-0.0029986417 -0.001032646 0.7724731
-0.17953195 -0.0339886 0.90160185
-0.10995133 0.050044607 0.9264183
-0.13507584 0.0023450335 0.88090426
-0.028578833 0.059866164 0.9662494
-0.1792796 0.024738204 0.925577
-0.15930192 0.004274618 0.8943914
0.072147764 0.023317428 0.8828494
-0.18344216 -0.062119942 0.94393027
-0.09784297 0.03150625 0.89958197
0.10136302 -0.025321936 0.8172014
-0.1827327 0.01823593 0.9190634
-0.13332142 -0.035695504 0.8769665
-0.19299802 -0.010057341 0.89705783
-0.21470822 -0.019819885 0.91299677
0.114823386 -0.060851872 0.8078078
-0.16904314 0.054130904 0.96010625
0.06250997 0.0186045 0.7291941
-0.16742164 0.09346502 1.0675752
-0.16914754 0.040832084 0.9373837
-0.24168469 -0.012554828 0.9363534
-0.11908819 -0.017109713 0.85535324
-0.066305876 -0.06384298 0.85424
0.05312826 -0.01555994 0.8127036
0.13535687 -0.00020941733 0.8316978
-0.12248325 -0.061016046 0.88832843
-0.14248128 -0.030149562 0.8719956
-0.25192323 -0.034870535 0.950291
0.11527284 0.0177364 0.8641341
-0.122821406 -0.048757683 0.8858231
-0.03640464 -0.06884093 0.8402879
-0.14374158 0.029207831 0.9095694
0.051295545 0.0052682594 0.72936004
-0.14965989 0.02823138 0.9171209
0.111612186 -0.050610363 0.80685633
-0.25266686 0.00089500844 0.9616503
-0.20499858 0.0070981747 0.9275681
0.13336767 -0.0011415216 0.83584785
0.1271868 0.03379486 0.91247785
-0.072636984 0.032728165 0.9121049
-0.0077741584 -0.032757897 0.8137472
0.054051798 0.031119473 0.83972406
-0.05338177 0.052245278 0.9315459
0.046414036 0.010276853 0.7340401
-0.007707754 -0.032299202 0.8116534
-0.11233892 -0.034102738 0.84669995
0.093946256 -0.05805287 0.80987424
-0.07494677 -0.00896645 0.8472243
0.060579274 0.018895311 0.72463715
-0.012038368 -0.035331298 0.8079572
0.10489571 0.003406963 0.8344177
0.15032567 -0.00924118 0.8610069
0.08060266 -0.0043186387 0.83040047
0.13173698 -0.0155075705 0.82306
0.042196047 0.028272348 0.74248487
-0.16778369 -0.009600363 0.8842432
-0.07905156 0.06646701 0.95877755
-0.029167851 0.06647927 0.9823259
-0.18622504 0.023071364 0.9336422
-0.09471081 0.019172411 0.88771284
-0.07247782 0.025491504 0.9010768
-0.19784777 -0.021207562 0.8980411
0.061837297 -0.060748544 0.81382626
-0.11299837 -0.012224538 0.8533396
-0.06070193 0.0023116372 0.87719506
-0.045957252 -0.0730941 0.8524796
-0.123058066 0.03422065 0.9058258
-0.04874404 0.027555719 0.90583605
-0.10529022 0.050014287 0.9328717
0.06741269 -0.023100343 0.81356955
0.022195008 0.067153625 0.7973728
-0.23505229 0.032840602 0.9933218
-0.031634487 0.08685982 1.0215498
-0.117993124 0.06781808 0.9610944
0.12828065 -0.034400564 0.81366813
-0.24275184 -0.04380907 0.96842384
-0.23799261 -0.007529239 0.9430565
-0.06543778 0.03960023 0.9167033
0.120362 -0.023685748 0.81602865
-0.0002924234 0.021775894 0.7800967
-0.2313542 -0.067872085 0.96988714
0.032172572 0.048875302 0.78272474
0.10695575 0.025984306 0.8910539
-0.10994034 -0.062315114 0.8783666
-0.08322541 0.015913717 0.8851112
-0.15545867 0.041406166 0.9341514
0.040300105 0.0036394105 0.7344413
-0.08566794 -0.048225462 0.85124433
0.103935204 0.017334666 0.8592421
-0.023153313 -0.005750821 0.82035667
-0.18409461 0.053764507 0.98828405
-0.08630555 -0.01933167 0.84175247
-0.0019725417 -0.0563038 0.81749344
-0.06782753 0.05019985 0.9222005
0.1588383 0.020882197 0.9112832
-0.1411 0.006014515 0.8869568
0.04180945 -0.0020353855 0.73462725
0.030520074 0.015383453 0.82729715
0.1167151 0.034341574 0.91599005
-0.041206334 -0.015017736 0.8478393
-0.080840245 0.06275375 0.94399995
0.14893372 0.017925095 0.9157193
-0.18212827 -0.042224493 0.9278715
-0.18156917 -0.018888136 0.8879095
0.025146943 0.050446816 0.78694457
-0.23497671 -0.046367183 0.9643404
0.030087963 -0.004250113 0.7383547
0.17252687 0.017368833 0.9259536
-0.21367279 -0.060794696 0.9605369
-0.080003016 -0.04418647 0.8468678
0.10177404 -0.06116293 0.8075852
-0.00781981 0.014299722 0.8224733
-0.12185372 0.01852414 0.8905941
-0.13989864 -0.041642494 0.89411676
-0.09665947 0.023939095 0.8968959
-0.02127956 -0.024980497 0.8145664
-0.15625054 0.08169423 1.0235488
-0.008443529 0.021585964 0.8256741
0.1270987 0.02968065 0.9189836
-0.07603632 0.008249501 0.8810488
0.06179304 0.0064408598 0.82386047
-0.037269723 0.041673448 0.9303064
0.091461815 -0.0011885134 0.8325443
0.0017913589 -0.007933481 0.7742475
0.053262662 0.036087725 0.8964669
0.05721473 -0.05973559 0.81268054
0.12687717 -0.061002098 0.81627995
-0.028200755 -0.00037688809 0.83108795
-0.23312773 0.042928007 0.99960405
0.025086042 0.04316443 0.7884382
-0.18262526 -0.025111757 0.8996449
-0.018045586 0.073921494 1.0072063
-0.13226111 0.044651546 0.92343396
0.078251764 0.023649272 0.8776234
0.12197408 -0.018427499 0.81853276
0.08402153 -0.054716397 0.81024015
0.12029941 0.033746228 0.91057706
-0.11073987 -0.06516135 0.87610507
0.17167337 0.0017492838 0.8941781
0.082923055 0.025497371 0.88966054
-0.25175583 -0.042411912 0.9673109
0.086349495 -0.00021828152 0.8321607
-0.022770237 0.06445918 0.9892754
-0.2377852 -0.005911322 0.939819
0.05920132 0.02748024 0.8334774
0.034992732 0.025849022 0.74172616
0.060413193 -0.05986374 0.8151535
-0.018638013 -0.0030500859 0.81539726
-0.011025291 -0.054482482 0.8115603
-0.039061747 0.017729446 0.90262437
-0.13994044 0.0122967865 0.8901849
-0.13108106 0.040566575 0.9234806
0.032109693 -0.03357764 0.81457543
-0.024248147 0.027469138 0.8088623
-0.2453232 -0.03895697 0.96491
-0.048869044 -0.073677585 0.84966016
-0.096504 0.07570847 0.9752285
0.019912358 -0.009078739 0.74331427
0.14441778 0.0009514876 0.8493072
-0.09171354 0.07601314 0.9715855
-0.12644297 0.039568435 0.91185886
-0.2294213 -0.051885553 0.9692445
-0.05958837 -0.02789815 0.8347259
0.030507999 -0.023448821 0.8109173
-0.108327344 -0.047159404 0.8671256
-0.12359942 -0.050441496 0.88339037
-0.04928894 -0.06323134 0.8430549
0.048769414 0.0063149557 0.82341844
-0.15463158 -0.04544411 0.91346383
-0.15836117 0.06732112 0.9759094
0.06184645 0.022927387 0.7260367
0.10329722 0.005234511 0.8506899
-0.09495404 0.046188418 0.9224251
-0.11362399 -0.023294786 0.84921366
-0.117194206 0.05006252 0.9309697
0.08375042 0.053008404 0.9378532
0.018070433 -0.062782 0.816936
-0.054201365 -0.02573098 0.83557403
-0.145992 0.0019806484 0.8846062
-0.19234645 -0.079023585 0.96881247
-0.02211111 -0.01681997 0.8118493
-0.22492419 -0.016730165 0.9236166
0.028833326 0.055495087 0.7878194
0.081370115 -0.03325069 0.81218684
0.041003134 0.0010008821 0.7312526
0.072005816 -0.046597887 0.8100372
0.09101031 -0.0044218707 0.8245832
-0.23529634 -0.014447017 0.9327506
-0.2327091 -0.022654437 0.92612064
-0.23089124 -0.024589922 0.9303288
0.10908838 -0.03470735 0.81385785
-0.018750027 -0.055352937 0.8132272
-0.16439275 -0.0106106475 0.88111264
-0.22565326 0.0564067 1.0215477
-0.0024527893 0.02193403 0.7838408
0.083091415 0.032756943 0.89152265
-0.046077285 0.08705687 1.0184602
0.09318254 0.03070724 0.89784545
-0.14643043 0.0088585075 0.8950706
0.10191616 0.041198306 0.91322684
-0.061906695 -0.0055511054 0.86713547
0.013523741 0.030297548 0.77998775
-0.09642759 0.012678324 0.8790026
-0.07468811 -0.039401118 0.8281592
0.08046115 0.005112233 0.8243078
-0.03089251 0.0677253 0.98370904
0.14845668 -0.016814481 0.8369236
-0.10499235 0.083131544 0.9966008
-0.22993629 -0.07791466 0.9742181
-0.045942925 0.05611948 0.96109915
-0.0033353698 0.0007924919 0.7662859
-0.18545753 0.084366865 1.0589404
-0.17319907 0.016251355 0.9119508
-0.054467797 0.04679789 0.93180615
-0.18013705 -0.040208194 0.9310541
0.12508345 -0.009236369 0.8349815
-0.002077516 0.035650175 0.7895704
-0.19398238 -0.0018771777 0.91278696
0.1358992 -0.017891632 0.8179089
0.08198696 -0.0566154 0.81125903
-0.20037098 -0.010794386 0.90998036
0.15262981 0.007630724 0.91254354
-0.21857888 -0.0120178 0.926908
-0.06739483 0.091844946 1.0324861
-0.027602505 -0.05262289 0.8148235
-0.15980026 0.04233324 0.9322913
-0.11676673 -0.024828136 0.8497696
-0.24655148 0.023861088 0.9875696
-0.1444491 -0.06586578 0.9027122
-0.026705543 0.036775723 0.9233096
-0.18737474 0.0654475 1.0072392
-0.2216801 0.053430162 1.0246522
-0.24164365 0.032591075 1.0037415
0.16395678 -0.0036920132 0.88141704
-0.13077115 -0.082599744 0.9070902
0.05974681 -0.062787525 0.81432426
-0.096701 0.07810808 0.9761945
0.1396513 -0.002529902 0.8384288
-0.23460034 -0.042464428 0.9571617
-0.16081604 -0.018726155 0.87726223
-0.052722685 -0.072960556 0.8531956
-0.053101406 0.03700965 0.9120532
-0.1771435 -0.06921912 0.9531292
-0.09739001 -0.024197895 0.8452257
-0.21561074 -0.074675 0.9708293
0.06305712 0.039755415 0.86517507
0.048381492 0.025683103 0.7394818
-0.17994784 -0.04380972 0.9289057
0.17273535 0.015122571 0.91814446
0.040657733 -0.009649789 0.82139444
-0.021142414 -0.07047961 0.8316092
-0.014047423 -0.031595152 0.8151994
-0.19932891 -0.047867052 0.94866246
0.07192876 -0.00516701 0.8195931
-0.1317158 0.040184237 0.9236058
-0.17024475 -0.05774024 0.92587006
-0.11526774 0.038439006 0.91493773
-0.048171334 0.072473496 0.9895357
-0.11466677 -0.06008541 0.8853788
-0.067670904 -0.057026234 0.8512814
-0.14723508 0.06646223 0.96505576
-0.10963984 -0.01635592 0.850415
-0.09809586 0.043966435 0.9247896
0.05098592 0.02986407 0.7423749
-0.022916565 0.036182087 0.92715585
0.08205089 0.011851489 0.8313813
0.14871489 -0.0038520044 0.851961
-0.2227065 -0.06555896 0.9637544
-0.06378509 -0.0072154165 0.8569645
-0.070433944 0.017249998 0.8862808
-0.09579836 0.075193025 0.96859324
-0.06201296 0.10404289 1.0703124
0.13420364 -0.016792733 0.8172158
-0.15150608 -0.02317568 0.87058014
-0.038878355 0.05464906 0.95526546
-0.1648217 -0.022239601 0.87666255
-0.12527539 -0.08168166 0.9046287
-0.060549047 -0.035320677 0.82520384
-0.042270076 -0.035757143 0.82133394
-0.21185052 0.011590652 0.9424979
0.056767147 -0.02167944 0.8131258
0.007913755 -0.011491492 0.7533567
-0.10290933 -0.078115754 0.8883092
-0.23461337 0.052590698 1.0136743
-0.03347467 0.07009551 0.98778665
0.12791559 -0.003295797 0.83759475
0.035652146 -0.065370634 0.81611454
-0.18791682 0.0035225602 0.91318864
-0.11788627 0.017088719 0.88774693
-0.027831923 0.057574123 0.95608544
0.04611417 0.019875336 0.74103725
-0.08255628 0.044084836 0.91951984
-0.1651137 0.069187246 0.9705276
-0.23655294 -0.061435197 0.9671745
0.055656496 -0.019521255 0.8160215
0.02349231 -0.06256237 0.81489855
0.040568225 -0.024875725 0.8169235
0.08903703 0.036523834 0.90664876
-0.1394815 -0.0077327257 0.8703848
0.042449787 -0.061699025 0.8182469
-0.1919773 -0.011918266 0.90215385
-0.10633455 0.07336314 0.9795169
-0.21404512 0.044059232 0.9844811
0.043740653 -0.019608894 0.8193618
0.050021008 -0.013066132 0.8166443
-0.19520965 -0.041245367 0.9379062
-0.033477392 -0.037760872 0.8207463
0.13990593 -0.034547273 0.8293364
-0.1426904 -0.048322387 0.9037763
-0.048249435 0.039149106 0.92487603
-0.0960279 0.07672848 0.9857469
-0.08282936 -0.028003333 0.8338277
-0.1341728 0.0073711593 0.88241434
-0.037262518 0.0044253264 0.82677567
-0.22171871 0.040273562 0.9905604
-0.20411764 -0.04137985 0.9432364
-0.22835119 -0.0367528 0.9477183
0.038658727 -0.06498172 0.8139953
-0.099946566 0.0545238 0.9371766
0.12711167 -0.037631255 0.8066333
-0.020218706 -0.04927634 0.812641
-0.085769415 0.08515932 0.9963154
0.065942325 0.039766137 0.9006456
-0.08124889 0.08751078 1.0041189
0.06084069 0.014719139 0.7287019
-0.24852148 0.009349203 0.9714841
0.1359916 -0.015462471 0.8190904
0.06786208 0.010215704 0.82382303
-0.0024321089 -0.06357761 0.81943697
-0.1626144 0.013328572 0.9013737
-0.10117574 -0.055123016 0.87244034
0.031804968 -0.04179125 0.8175128
-0.20291229 -0.059615187 0.96137255
-0.18693939 -0.022622468 0.89789987
-0.077782474 0.031417377 0.89938456
0.12278937 -0.02158568 0.81607217
-0.16738915 -0.053454675 0.92704606
-0.15490468 -0.05153356 0.9159202
-0.09532424 0.003513371 0.8665744
-0.24435712 0.03792912 1.0089421
0.13581686 -0.048819587 0.8281703
-0.165436 -0.010816596 0.87644315
-0.06483288 -0.071881466 0.8570074
0.04451134 -0.058009483 0.81618077
-0.22359289 -0.07454335 0.9705569
-0.18735686 -0.018290775 0.8955818
-0.113902554 -0.018943515 0.8532249
0.00450545 0.05058381 0.7897538
-0.13252716 -0.004146114 0.87267834
-0.11100109 0.0011920866 0.872135
-0.19466421 -0.08070192 0.9674758
0.046485014 -0.03832665 0.81131136
-0.20437163 0.07231011 1.047954
0.067029946 0.021302363 0.8554256
-0.1586597 0.015956378 0.8975067
0.1584866 -0.013889318 0.8637126
-0.15213121 -0.0064644823 0.8766637
-0.18778808 -0.01982993 0.89171153
0.06595431 0.0084851105 0.8294675
-0.058298204 -0.025620492 0.83356196
-0.182765 -0.0015955917 0.89945835
-0.12950811 0.0437122 0.92606896
-0.07452625 -0.06257884 0.8547335
0.122125715 0.00468021 0.8465182
-0.0662863 0.07009618 0.9760588
0.056923244 -0.042118784 0.8161391
-0.10618121 0.038643457 0.9036221
0.06432209 -0.03261252 0.80923855
0.04892202 -0.05556701 0.8150644
-0.24828455 -0.01769136 0.94060856
-0.20696838 -0.013797222 0.90783024
0.12992243 -0.034782387 0.8121505
-0.20191857 -0.07653054 0.96847427
-0.24393718 -0.02915588 0.94255877
-0.12205896 -0.07888047 0.8987457
0.011097807 -0.013137139 0.75447226
0.031237366 -0.0057176454 0.73680764
-0.18506528 0.009216407 0.9110969
0.10357186 0.032894216 0.9036301
-0.15879215 -0.018918943 0.87328863
0.15368548 -0.043445434 0.8616051
0.10940389 0.040796548 0.91382164
-0.12281451 0.072140664 0.9808344
0.007658123 -0.0010329448 0.75561446
-0.12274864 0.06967756 0.9618862
-0.15227075 0.066641204 0.9751721
-0.13250493 -0.0501798 0.8910617
-0.1286224 0.07866726 0.9865013
0.08293911 0.0011571432 0.8283116
-0.03258182 -0.034449823 0.82517225
0.12133892 -0.0002435795 0.84703845
-0.07960819 -0.046069592 0.83796835
-0.23489694 0.04060207 0.99176246
-0.004076739 0.027646463 0.78209823
-0.070501745 -0.056424655 0.85070926
-0.24365965 0.022603301 0.98924273
-0.16058326 -0.020857915 0.88003933
-0.20027007 0.005120145 0.91951096
-0.00029871846 -0.028495349 0.80966014
-0.10828768 -0.013452755 0.8474518
-0.031390563 -0.068734206 0.8409635
0.08494005 -0.06195291 0.8107184
0.0790863 -0.04697493 0.8116199
-0.1947194 -0.03793757 0.9264691
-0.12093199 0.0612046 0.9585395
0.019023508 0.04187892 0.91050875
0.12207181 -0.03300427 0.81328535
-0.2386676 -0.0241652 0.9301744
-0.0665592 -0.06209671 0.8479078
0.08445411 -0.032564167 0.812485
0.031017425 -0.0052515855 0.73761374
0.069374375 -0.053214658 0.81116426
-0.22984399 -0.004561836 0.93320775
-0.23590383 0.044400197 1.0037313
-0.13279696 -0.06385922 0.89237434
0.044260897 -0.0513167 0.81343657
-0.018554635 -0.010085494 0.8032709
-0.03684583 -0.046329994 0.81680566
-0.21229729 0.04358178 0.99616337
-0.23142637 -0.011814191 0.92927957
-0.08555768 0.049182933 0.92616487
-0.0687374 0.016605815 0.8891192
0.10086329 -0.026935115 0.81775624
0.118062966 -0.058430407 0.80626315
-0.1907626 0.036143035 0.9558564
-0.12615748 -0.0051324493 0.86865366
0.07587437 -0.01758935 0.81869346
0.09884975 0.009118538 0.840513
-0.16162737 0.07307644 1.0052369
-0.20288844 -0.04010044 0.93267214
-0.081779286 0.03050002 0.89804363
0.12842326 -0.027225884 0.81366056
-0.2103858 -0.023452625 0.9121142
0.14824702 0.025982704 0.9118701
0.05179255 0.011922504 0.7294295
0.021291418 -0.0042720377 0.74277157
-0.039058156 0.019322447 0.89874464
-0.08742125 -0.05290295 0.8580674
-0.17790313 -0.073120825 0.95999503
-0.15310974 -0.060061187 0.9129954
-0.0043011764 -0.024062797 0.8111991
-0.01685994 0.026909675 0.7896606
-0.1569292 0.030693388 0.9161684
0.10086768 0.025080264 0.8819335
-0.19158056 0.0070404084 0.90746856
-0.1634052 0.035151817 0.92923754
-0.013339885 -0.06986301 0.8305009
0.08003439 -0.037779886 0.8114255
0.13344787 -0.007988266 0.83538806
-0.020156782 -0.0674839 0.8322256
-0.083327785 -0.05934838 0.8603704
-0.1513068 -0.017659953 0.8685988
0.04389941 0.022248598 0.7376202
0.053879466 -0.008793588 0.8198232
0.026263457 -0.01015841 0.7397129
-0.17396614 -0.020817876 0.88496125
-0.21995518 -0.017353479 0.9189066
-0.21264106 0.042382073 0.9903582
-0.124888904 -0.018308075 0.8551762
-0.026041174 0.08666568 1.0273125
-0.11941908 0.04068501 0.91482323
0.16263276 0.010478809 0.9098227
0.15797248 0.01789262 0.91445106
-0.09790515 0.07480456 0.98570293
0.12700203 -0.020149838 0.81753975
0.10430059 -0.05264674 0.80755013
0.057490464 -0.013425124 0.8176325
-0.12762217 -0.0022471054 0.86808234
-0.12082374 0.06277105 0.94181967
0.07302448 -0.0078449715 0.8214996
-0.10198915 0.03755312 0.91049504
-0.113266915 0.024077248 0.8966607
-0.16473156 -0.045114193 0.91816926
-0.1119722 0.06691179 0.95578283
0.11241197 0.04448777 0.91043466
0.11556211 -0.00039600418 0.84349114
-0.22493412 0.0032974829 0.9436884
-0.05310703 -0.06833073 0.8519043
0.016275667 0.049760006 0.790384
-0.08364045 0.057749026 0.9347033
-0.16153659 0.07310203 1.0094316
0.04124251 0.009692206 0.8239847
0.010469364 0.061957847 0.792198
0.102197945 0.029220605 0.88515127
-0.10100111 -0.039081052 0.8533278
-0.057946544 -0.05952763 0.8484697
-0.060645465 0.066852584 0.97368187
-0.10601562 0.037256677 0.90551937
-0.0664524 0.074198134 0.9768902
-0.16116127 -0.012181131 0.8762675
0.068149425 0.007537378 0.8270662
0.06510444 -0.039194122 0.814411
-0.23287949 0.04594755 1.0040202
-0.1262435 0.051001094 0.93706423
0.03324052 0.054460492 0.79176676
-0.06698124 -0.05747677 0.85089743
-0.13355222 0.00043347897 0.8757958
0.13212122 -0.029222315 0.8163027
-0.096188016 -0.065664284 0.8698003
-0.1269133 0.08829438 1.0213886
-0.021735027 0.04332544 0.9357598
-0.17746042 -0.053460855 0.9284845
-0.18358526 0.053366154 0.9788843
-0.18861179 0.038348675 0.9616111
0.122472115 0.03225624 0.9146748
0.05732396 -0.0035405927 0.82153666
0.09980455 -0.053729 0.8103764
-0.1490659 -0.022638371 0.8696276
0.019797046 0.008998426 0.7466717
-0.1919726 -0.067951754 0.9535071
-0.11748704 -0.05477631 0.88515246
