ply
format ascii 1.0
element vertex 1391
property float x
property float y
property float z
end_header
-0.15437749 -0.06436905 0.83580583
-0.18800548 -0.037217155 0.862337
-0.21383052 0.006300268 0.8045642
-0.27057284 -0.013722765 0.9107387
-0.124683276 0.068638034 0.92181754
0.091911025 -0.013326782 0.754927
-0.058406748 0.041038036 0.86987317
-0.00022895355 0.041098192 0.7654775
-0.018658299 -0.04010496 0.7512941
-0.14162116 -0.077779844 0.82009345
-0.116021946 0.046149995 0.8678801
0.060269848 0.022476412 0.77234817
0.061481476 -0.019404741 0.77377754
-0.23836152 0.04106932 0.9144309
-0.17582494 -0.019196296 0.8161012
0.070930526 0.013409482 0.80639285
0.0033970498 0.03078654 0.70622355
-0.2402998 0.021109775 0.9403134
-0.23779467 -0.015191675 0.8369328
0.008676243 -0.044564888 0.75386894
-0.13498367 -0.013093464 0.79009074
-0.15461184 0.041183446 0.840113
-0.17880237 0.010429869 0.8107837
0.03266395 -0.017899392 0.7585898
-0.022032667 -0.020859819 0.7537943
-0.16227876 -0.036739275 0.8822155
-0.07745912 0.018109504 0.85940254
-0.13310526 0.017505456 0.8236833
-0.20869796 0.050135143 0.8966027
-0.18096006 -0.014556829 0.794328
-0.16564517 0.030703694 0.80876505
0.101082176 0.029363962 0.8314271
0.067720085 0.05598111 0.80274993
-0.1161422 0.100870945 0.9993246
-0.25118276 -0.033889268 0.8332235
0.017292485 -0.020226855 0.75650734
-0.20808095 -0.007133969 0.8377683
0.032316513 0.056372687 0.917193
-0.10096535 0.057522707 0.88563895
0.06232266 0.028469073 0.7902674
0.034279022 -0.03867288 0.74539816
-0.12605688 -0.02241295 0.7783756
-0.20560518 0.07233666 0.9437334
-0.010296375 0.025389733 0.76480526
0.041893702 0.01995737 0.82108253
0.010956835 -0.026292495 0.76972103
0.061482687 0.027205426 0.7753341
-0.14492312 0.08434396 0.9675601
-0.17686307 0.010286742 0.8372157
-0.20646694 0.012346125 0.8460636
-0.15616153 -0.060887724 0.8171105
-0.021090914 0.035858985 0.6853028
0.12925844 0.011961562 0.76245415
-0.17729177 0.0049705226 0.82668567
-0.27272618 0.0054827062 0.8902729
-0.17280258 0.06898326 0.94856197
-0.12187176 0.0049625845 0.7718048
-0.20166565 -0.04979883 0.88328093
0.053109594 0.01877019 0.69658035
0.13296323 0.024067732 0.74728525
-0.16974835 -0.06633581 0.8159801
-0.078268684 -0.0008705179 0.7921701
-0.0018575708 0.0005378517 0.7222916
-0.10011611 -0.012055039 0.7369512
0.05118798 0.03133218 0.8061213
-0.00554675 0.011798759 0.7032037
-0.014729216 0.02338752 0.7450564
-0.13836695 -0.053750105 0.8459667
-0.26782846 -0.06670524 0.90273726
-0.18249124 0.084589094 0.9526893
0.02385538 -0.016485417 0.77539784
-0.16579364 -0.0608289 0.8463063
-0.2573286 0.014949192 0.87271047
-0.028339148 0.063253134 0.7404152
-0.06975863 0.030480195 0.7492721
-0.24396661 -0.065959685 0.8909222
-0.0010951164 0.0126729 0.70347357
0.11850969 0.006845664 0.70762515
-0.14677173 -0.0007959509 0.81478524
-0.20540306 -0.010427168 0.79801023
0.03820671 -0.041203734 0.76114064
-0.17121664 -0.06936316 0.8563451
-0.06481804 -0.018626455 0.79875
-0.18113692 -0.020116128 0.7928851
-0.0010794834 0.050331417 0.7674322
0.124493435 -0.033817384 0.74382097
-0.06862437 0.08430595 0.7380649
-0.14506976 0.057671305 0.88378865
-0.08322397 -0.033426404 0.7793097
-0.06583725 0.021072488 0.7784652
-0.12557203 0.049939632 0.8894792
-0.20618068 0.06191276 0.9156241
-0.11664201 -0.06730629 0.8067857
-0.14209238 0.08307208 0.95156944
-0.0654236 0.05846836 0.98239356
0.01339979 0.09834629 0.7739038
-0.095927835 0.04583413 0.8512375
0.052631266 0.07202557 0.90198034
-0.19710179 0.05730487 0.98619074
-0.2613342 -0.056349006 0.892293
-0.008602439 0.11559218 0.8015042
-0.27988562 -0.014086737 0.8869657
-0.1564607 -0.069797084 0.8590934
0.057684608 0.045547087 0.85836065
-0.05578679 0.007887605 0.789912
-0.13122647 -0.0032829293 0.7724339
-0.014237674 -0.022392206 0.7559742
-0.28343827 -0.040896084 0.86817735
-0.21150036 0.04136038 0.8641549
-0.1968351 0.03710617 0.87261766
-0.23017982 0.01598029 0.95469046
-0.13473392 -0.02493317 0.7791877
-0.06857551 -0.06700883 0.77646273
-0.05459383 0.035310943 0.86085445
0.07072435 0.04553551 0.78215116
-0.0020205432 -0.012662686 0.75413984
0.020043053 -0.01269852 0.7543291
0.0332616 0.06907952 0.86288387
0.08386495 0.01606997 0.8226214
-0.113467395 -0.020901121 0.7834341
0.057336822 0.049174443 0.791806
-0.18302834 -0.031290703 0.83225566
-0.19420595 0.044316422 0.89819515
0.030717485 0.01938463 0.8039827
-0.20370914 -0.019496454 0.82623106
-0.112173535 -0.05404722 0.8006237
-0.030702095 0.03023192 0.7253887
-0.22526328 -0.012309974 0.85611033
-0.17337449 -0.08853023 0.8829103
-0.2544972 -0.044590265 0.8973237
-0.060447168 -0.012250013 0.7807944
-0.051935956 0.04658085 0.9662102
-0.21916474 0.04143607 0.8551288
-0.22796328 0.033501185 0.87006426
0.08189745 0.006975028 0.79624194
0.08056628 0.014713934 0.7575041
-0.16272257 -0.0033167705 0.7929221
-0.14316453 0.020955151 0.7832537
-0.30709204 -0.033281323 0.87584436
-0.102243915 0.0066588735 0.8155313
-0.038115952 0.028836587 0.7333733
0.060412493 -0.010313312 0.76372695
-0.11764341 0.05374906 0.9190341
-0.14663266 -0.013337091 0.77719873
-0.19283244 0.03176348 0.90181196
-0.20431994 -0.019558948 0.8472069
-0.2550233 -0.007777688 0.89262486
0.0021694032 -0.045329705 0.77054405
-0.00021290407 0.0030722073 0.77102256
-0.07743545 -0.064678624 0.7788806
-0.16432063 0.058944162 0.8685672
0.0127392085 0.031505026 0.74671066
-0.17829868 -0.063524425 0.82852894
-0.13012429 -0.012604774 0.7859419
-0.03888174 0.03051228 0.7532217
-0.10946075 -0.07177765 0.82859427
-0.1826135 -0.044393122 0.86599743
-0.29092357 -0.015028152 0.9046181
-0.10156272 0.012488343 0.8009238
0.06598656 0.012143522 0.7743018
-0.076147884 0.037810367 0.85181123
-0.027842 -0.06480356 0.7835704
0.000960509 0.0956692 0.7374899
0.00692204 0.020293018 0.7033227
-0.009558786 -0.008167157 0.7621135
-0.22071002 0.04559228 0.9485724
-0.13101883 0.006865197 0.7863256
0.028003419 0.019917266 0.7504272
-0.04898957 -0.06407803 0.7680753
-0.04947951 -0.041590087 0.7417142
-0.039475165 0.04157067 0.74916446
-0.07444855 0.04324308 0.89532703
-0.09937687 0.024361683 0.8277747
-0.018460952 -0.02271752 0.76801944
-0.1932654 -0.006589635 0.83642256
-0.13912627 -0.0158986 0.770082
-0.024255833 -0.0019335905 0.7380451
0.049992457 0.05770409 0.86119014
-0.18450905 0.02307791 0.8437583
-0.023157477 0.01822773 0.7683991
-0.11437994 0.074590184 0.9329684
-0.11829251 0.084095284 0.96724206
0.12181691 0.015833793 0.7428621
-0.23668103 -0.06300559 0.90346473
-0.13983496 -0.04440071 0.82024115
-0.2741968 -0.07594484 0.9130973
-0.17450176 0.010843892 0.787595
0.0798616 -0.028563524 0.75420046
-0.1526995 -0.022392068 0.7859722
-0.27430317 0.048289564 0.9760085
-0.21627308 0.0006022067 0.83129835
-0.011091552 -0.03176504 0.77415305
-0.17605695 0.02645469 0.86299026
-0.29528347 -0.031863317 0.89683425
0.09980298 0.0035868501 0.7673056
0.093624264 0.020686887 0.7841831
-0.080675066 0.044866733 0.8769418
-0.06001187 0.09989436 1.0040289
0.08668977 0.0239122 0.78644913
-0.16930063 0.03199399 0.8180635
-0.07552635 -0.058773603 0.7858317
-0.023560405 0.01298959 0.7200734
-0.19767894 -0.01342223 0.83282715
-0.13736156 -0.05955278 0.8115825
0.0013231098 0.0047961986 0.7523323
-0.12911397 0.030026708 0.80011106
0.05732496 0.056818098 0.779803
-0.18971288 -0.002716822 0.79044753
-0.28365016 -0.020586025 0.90977424
-0.23869747 -0.07649183 0.8826044
-0.1768037 -0.0041188737 0.82311594
-0.08868997 0.068250045 0.9158869
0.06832168 -0.043155666 0.7602897
-0.22917932 -0.07719441 0.89338404
-0.2360136 0.00054389937 0.8898692
-0.10422104 -0.053445667 0.75869936
-0.145177 0.093907304 0.9770521
-0.18638234 -0.070251636 0.8802862
-0.25401357 -0.08076713 0.9031912
-0.29257137 -0.0067000818 0.90097636
-0.24366906 0.020443512 0.9390136
0.07645369 0.008928788 0.76570064
-0.11981074 0.09655154 0.99836755
-0.017838951 -0.03874354 0.77003473
0.0147803165 -0.02964507 0.7610961
-0.06391893 -0.045727775 0.77848697
0.058541335 -0.029615248 0.7709162
-0.25908762 -0.0818318 0.9024951
0.08986049 0.0058095288 0.7551693
-0.17893194 -0.03952509 0.84352964
-0.24919777 -0.037273016 0.87106264
-0.17213935 0.03497616 0.77889544
-0.25432274 -0.05040714 0.88987494
0.15429915 0.014718312 0.75050765
0.023561526 -0.059704516 0.74259156
-0.064419046 0.04644033 0.7395565
0.04423974 -0.009020081 0.7698618
-0.22385986 -0.079753585 0.9016923
-0.099792324 -0.000491485 0.8238995
-0.020231651 -0.012329636 0.7092442
-0.24626945 0.020640625 0.8783609
0.0762232 -0.012481724 0.75828683
-0.13665767 0.030398965 0.79778254
-0.22758631 -0.10259469 0.9089365
-0.063634 0.0021368829 0.74728477
-0.18352543 -0.07463972 0.8595557
-0.07621508 0.013078992 0.8233807
0.060415152 -0.03410512 0.7633317
-0.15625231 0.04471817 0.88982004
-0.26129955 0.014576685 0.9368204
-0.03922626 0.036251657 0.72379327
-0.22433512 -0.03301267 0.833159
-0.13139771 -0.048731472 0.81445706
-0.18249908 -0.059849095 0.8626266
-0.23813647 0.02029957 0.9612255
-0.17380966 0.023560638 0.8207173
-0.20643976 -0.04999192 0.89557034
-0.2966241 -0.016638508 0.867031
-0.17486714 -0.014355831 0.8384799
-0.07103905 -0.005471169 0.73938835
-0.07452372 0.050183367 0.92110574
-0.19526505 -0.036585793 0.85167426
0.063396774 0.011477854 0.77681434
0.014553663 0.03015667 0.7655062
-0.1252157 -0.07081294 0.8199868
-0.28579518 -0.014887234 0.872471
-0.051034264 0.03148168 0.7545039
0.10762183 0.027250582 0.8687532
-0.13455553 -0.06274402 0.83223027
-0.053810127 0.0047875275 0.748411
0.06523086 -0.011545936 0.7388604
-0.0011673798 0.035278495 0.7476534
-0.24590175 0.042497087 0.9258026
-0.20928624 0.029646646 0.8682232
-0.2607866 0.020878522 0.9533057
-0.09994043 0.064229585 0.9132388
-0.20586124 -0.026181206 0.8345355
-0.28434068 -0.04360186 0.88474685
-0.24711922 -0.022655629 0.85379136
-0.2345315 0.066777304 0.9699949
-0.1895223 -0.044316243 0.8198167
-0.1324201 -0.061015174 0.8177971
-0.04051714 0.075394295 0.69234276
-0.28445563 -0.0651745 0.9287141
-0.0005821035 -0.028580219 0.7506524
0.0057376437 0.028433297 0.77647245
-0.21700147 -0.0021260916 0.862245
0.10512651 0.018041212 0.84976876
-0.15602075 0.0032181176 0.79491895
-0.13085355 0.08827821 0.97650695
-0.11663809 0.027603881 0.90597504
-0.11732572 -0.06533045 0.8293665
-0.14047973 0.00097227516 0.76120895
-0.006446074 -0.032792058 0.7812902
-0.2608763 -0.014420835 0.85704535
-0.008987852 0.0047933366 0.7002086
-0.09950217 0.021489462 0.8229356
-0.15463848 0.05252145 0.8363638
-0.078738034 -0.015788948 0.7666637
0.05850771 0.005654503 0.75904286
0.068495005 0.018420972 0.77442527
0.018317662 0.040130787 0.78291327
-0.22674136 0.040784795 0.9822983
-0.13337928 -0.0471012 0.80803066
-0.26763213 0.020680131 0.9387647
-0.20400815 -0.012556516 0.8389676
-0.09779582 0.00075805304 0.7696279
-0.023683246 0.026446113 0.7403828
-0.096465155 0.02469796 0.8081687
-0.17947036 -0.059478577 0.84901446
-0.15480879 0.086504884 0.9759713
-0.028402988 -0.024965134 0.7529732
-0.028994668 0.01457959 0.7611748
0.12903316 0.001292964 0.75545645
-0.012313652 -0.055080384 0.7632583
-0.17828105 -0.063515894 0.8460827
-0.03944335 0.06268028 0.9368477
-0.1337279 -0.027785733 0.78338194
-0.0897268 0.04719146 0.86378515
0.075803585 0.018140297 0.8132469
-0.04358335 0.03734903 0.91416115
-0.15091316 0.02401326 0.81643426
-0.26117977 -0.068265505 0.88923323
0.118601315 0.022722354 0.8441661
0.0035651152 0.02347821 0.76171607
-0.03588747 -0.0128026325 0.7568864
0.016261052 0.0288765 0.86584514
-0.24306631 -0.03711108 0.8542566
-0.0461134 0.11223605 0.7260184
-0.15094715 -0.009992369 0.7825673
-0.028449178 0.025909355 0.7420053
-0.21716419 -0.085472606 0.8889588
-0.03885853 0.037956648 0.8466639
-0.2189449 -0.0415141 0.8502142
-0.020080084 0.025818724 0.71373427
-0.14638665 0.044446863 0.8726418
-0.25987083 -0.0415979 0.89308065
-0.24841441 -0.0006028027 0.89026845
-0.12812425 0.05253809 0.85179496
-0.1658769 -0.019077593 0.79627544
0.089263454 -0.02762841 0.75969285
0.012134543 0.0499964 0.80096203
-0.21139243 0.050643846 0.97851336
-0.03798586 0.08954036 0.71756583
-0.19253361 -0.08152052 0.8894475
-0.14060584 -0.021636248 0.7927203
-0.22402811 -0.054656107 0.87463456
0.015780464 0.014101254 0.7754622
0.09565247 0.0047951634 0.7666913
-0.070991494 0.010874486 0.8161452
-0.17371449 -0.07137189 0.8425527
-0.073060006 0.05455005 0.89302844
0.022830425 0.017038954 0.76449287
0.06738701 -0.009359062 0.7581456
-0.045480836 0.0017096008 0.7483333
-0.29203436 0.014285728 0.93465084
-0.11351946 -0.04216854 0.80289525
-0.24383533 -0.08257104 0.9062246
-0.12811522 -0.023778245 0.7919188
-0.07600424 0.072972484 0.93133616
-0.08609225 0.08980679 0.9595579
-0.23684652 -0.07707966 0.88698566
0.02190131 0.033474013 0.7843011
-0.18449083 -0.00017231889 0.8181528
-0.13564858 -0.039813176 0.81270355
-0.089402005 0.07253781 0.96045053
-0.12701568 -0.0038394518 0.7852825
0.1040872 0.0442386 0.8504544
-0.10834884 0.07644395 0.9802202
0.113198005 0.050049763 0.8593785
0.047189046 0.014593592 0.7907296
0.09189901 0.005342302 0.7829258
-0.1868987 -0.046474878 0.88504833
0.107127585 0.01939745 0.8618163
-0.20902531 0.024110492 0.8548032
0.06669984 0.04243015 0.90347695
0.000662399 -0.0415693 0.74388874
-0.14648944 -0.020667225 0.7835694
-0.22217664 0.016511485 0.8870124
0.014119642 -0.024745692 0.76071244
-0.1281872 -0.042942643 0.82271177
-0.0600074 0.068241365 0.96968377
-0.053841278 -0.04115751 0.75681627
-0.055698458 -0.015796568 0.73662895
0.036599323 0.05272528 0.767295
-0.07535368 0.07595923 0.9808385
-0.15730685 0.05578875 0.85385245
-0.21006177 0.06857812 1.001492
-0.113212995 0.08390454 0.9209789
-0.028221799 -0.047174696 0.778036
0.08010882 0.050151255 0.8565443
-0.08020443 0.07530452 0.97487587
-0.08222571 0.082616165 0.9725184
-0.25164524 0.010912597 0.9322974
-0.18335675 0.09584592 0.94586307
0.070509665 -0.028772244 0.7967495
-0.2989733 -0.049390964 0.8687442
-0.11743613 0.07066759 0.94877964
-0.10066208 -0.019327126 0.77796704
-0.046759993 0.026036078 0.8055609
0.0168474 -0.01197087 0.7454487
-0.0034728148 0.048424337 0.7678437
-0.22707391 -0.01869891 0.83633685
-0.23159036 -0.08292886 0.8986177
-0.17976512 0.0007042 0.7976881
-0.17736508 0.01253416 0.8021181
0.09534356 0.009277733 0.78594047
0.04535453 -0.027788956 0.77433395
-0.2658769 -0.063738234 0.89319086
-0.115843594 -0.062945366 0.8150444
-0.068425186 0.10784075 1.020829
-0.13093399 0.0017339704 0.7774963
0.044434648 -0.03496964 0.77167547
0.049282983 0.075344495 0.8881849
0.05174944 -0.030547205 0.77677226
-0.28289583 0.031252246 0.93326753
0.0704153 0.013994854 0.7768912
-0.14280273 -0.0012081251 0.77984786
-0.04372385 0.040151715 0.86962104
-0.1876157 0.0072273933 0.8096207
-0.23217805 -0.076683804 0.89810956
-0.12333101 -0.014249763 0.8097568
-0.16469117 0.010382001 0.80414236
-0.023036767 -0.008889123 0.7382087
-0.046856806 0.03470362 0.75987387
-0.17051974 -0.020567633 0.82163006
-0.05706714 0.020969436 0.8248457
-0.036849953 -0.009909779 0.7587216
-0.17559426 0.00025207084 0.80435294
0.0033312547 0.07120929 0.75858665
-0.0705165 -0.052269038 0.78202516
0.0726516 0.009452034 0.77562535
-0.16405258 -0.06265784 0.8593959
0.11210537 0.0011948338 0.75425076
-0.1982947 0.009354813 0.81421185
-0.18770885 0.03774724 0.90074366
-0.18358892 0.027842455 0.84425545
-0.20156437 -0.06364029 0.88700587
0.026132204 0.03976407 0.7834308
-0.1588744 0.10157421 0.99604976
0.07601418 -0.030847214 0.76536304
-0.19518198 -0.067447424 0.8839256
-0.038083397 0.0433503 0.6896482
0.12552817 0.037624504 0.76931167
-0.25971213 -0.056355592 0.9003161
-0.19891165 0.0016324115 0.82372075
-0.094180584 -0.04072624 0.77008355
-0.21342705 0.03131562 0.8733071
-0.18992609 -0.08086118 0.8373602
-0.06936723 0.050755586 0.91059786
-0.24654445 -0.0044277105 0.8599273
-0.27779835 -0.010018598 0.8815323
0.005190523 0.01838361 0.7018409
-0.19715473 0.07762642 0.92962265
-0.2335756 0.02834483 0.9433775
-0.19885449 0.037995 0.88207614
-0.18521436 0.016886247 0.8033292
0.063550025 0.06234644 0.8664099
-0.27425337 -0.058674015 0.9077325
-0.21859738 0.051352326 0.99918
-0.2953078 -0.010778498 0.89910996
-0.18747672 -0.00031539984 0.82424873
-0.068310335 -0.03394219 0.75932896
-0.00385193 0.01698078 0.7543899
-0.07941359 0.08563501 1.0369117
-0.26256824 -0.03940753 0.8752583
-0.043596625 0.054914773 0.7387193
-0.08886684 -0.067899816 0.79380417
-0.25091696 0.025781482 0.94490474
0.12936258 0.020838693 0.79797083
-0.28323802 -0.0045421575 0.88182795
0.04168013 0.045089368 0.8419448
0.11437538 -0.013935451 0.7512964
-0.28784886 0.006227989 0.9337326
-0.1910972 -0.01820892 0.82209903
-0.2893552 -0.052216835 0.8880597
0.09457251 0.023497509 0.82730985
-0.039557036 0.008971142 0.71903986
0.050483413 0.027753776 0.7115033
-0.26554093 0.0055283164 0.9242091
0.06666285 0.025216205 0.87013793
0.017273162 -0.023735527 0.7596761
-0.18645285 0.012903549 0.8107414
-0.2421487 -0.03805986 0.8566474
-0.05979969 0.07886478 1.0362811
-0.1507269 0.036770117 0.85332644
-0.12036239 -0.029303487 0.78000253
-0.12488055 -0.02646904 0.74719596
-0.27637756 -0.053179745 0.8865539
0.019048506 0.032632135 0.7864055
-0.06344487 0.04747463 0.9257698
-0.018343251 0.03777211 0.7815193
-0.058276 -0.023948805 0.7536333
-0.2746474 -0.046354845 0.8937515
0.024421938 0.05878178 0.8216186
-0.07127545 0.022620875 0.8460884
-0.23709983 -0.06755892 0.86098653
-0.08917448 0.026149858 0.8445323
-0.12440279 0.053037785 0.8175009
0.074579656 -0.02425234 0.7682303
0.13486758 -0.014708583 0.7662128
-0.15521966 -0.048714567 0.81579906
-0.19941707 -0.062094305 0.8787717
0.0646766 0.002166745 0.7719688
-0.17632335 -0.021931732 0.7922008
-0.08292423 0.05053986 0.9025641
0.12021603 -0.0074888975 0.7524961
-0.033172313 -0.009976624 0.7413043
0.0775762 0.010563773 0.8173936
-0.16641048 0.07652605 0.9364212
-0.1705965 -0.08038284 0.8503735
-0.0035814987 -0.0012133844 0.77941906
-0.086787894 0.043454513 0.68092793
-0.1659768 -0.07220795 0.85488665
-0.055630635 0.03714775 0.7413313
-0.22418648 0.040099006 0.94857836
-0.04695869 0.037331656 0.75864124
-0.05921797 0.045759205 0.8536352
-0.19239311 0.079096615 1.0224776
0.032723166 0.049453907 0.85617805
-0.0010752833 -0.0064559365 0.76220435
0.11819678 0.035421148 0.8577329
-0.010440487 0.011143617 0.68204707
-0.27880996 -0.045563504 0.8764683
-0.27789265 -0.06230346 0.8478347
-0.19996327 0.003045667 0.8109287
-0.16674726 0.06384285 0.8794339
-0.07517383 -0.030810345 0.77244407
-0.11654082 -0.021253016 0.77800184
-0.08349239 0.001291351 0.74237037
0.07980289 -0.026608955 0.7418609
0.09486597 0.0100429775 0.76479834
-0.2008235 -0.04010171 0.8633248
-0.09849964 0.066171885 0.87965924
-0.24539764 0.054215502 0.9950075
-0.041108705 0.07102986 0.9454374
0.09353764 0.043063715 0.86672884
-0.28030953 0.02276949 0.93425924
0.08573999 0.045804404 0.8382504
-0.16073713 0.044091262 0.8690534
-0.2554386 -0.021228945 0.8624109
-0.10481905 -0.022427583 0.77256644
-0.018931434 -0.03291826 0.7567939
-0.104543775 -0.046054248 0.7595559
0.053882703 0.03603844 0.70313674
-0.25525934 -0.053460974 0.8960484
-0.23863474 0.01595432 0.9280214
-0.19428839 -0.08890927 0.91995513
-0.12413283 -0.032788143 0.8029333
-0.09964949 0.051463123 0.87673897
-0.10684153 0.09049449 1.0191727
-0.22247371 0.020067006 0.8824789
-0.0944153 0.058959816 0.78408074
-0.17668782 -0.09157539 0.85401505
-0.17381218 -0.08304252 0.8552647
-0.08808307 0.08425751 1.0047076
0.08968474 0.020646386 0.763746
-0.03769558 0.064572796 0.69739425
-0.06523343 0.04416004 0.942253
0.05233959 0.0060234144 0.7746732
0.029388454 0.031624038 0.79231787
-0.012315114 -0.0138509385 0.7821648
0.074270576 0.046655785 0.8778433
-0.0050024274 -0.013156908 0.7596614
0.09368761 -0.0045226356 0.74322003
-0.14471406 -0.01555773 0.79678345
0.06279416 -0.02353653 0.75610554
-0.062687226 0.059275527 0.96974486
-0.2391743 -0.013122193 0.83556277
-0.1071378 -0.046924587 0.77560925
-0.10411515 -0.055978313 0.7709658
-0.09174966 0.031535394 0.7355517
-0.26828665 0.005991759 0.9255564
0.023115855 0.045181945 0.8032151
-0.05690291 0.0023521509 0.7762053
-0.04708805 0.011604611 0.7542871
-0.09619814 0.0092691025 0.82230014
-0.03152492 0.049828555 0.7552893
-0.22672017 0.018220706 0.82887065
0.08093042 0.018104095 0.8850677
-0.11469982 -0.05524819 0.7992259
0.10262617 -0.0022982978 0.69806874
-0.24813853 -0.030996 0.8393566
-0.031042175 0.05399306 0.9449761
0.03665769 -0.016074702 0.7548484
-0.0399243 0.0012281418 0.76892745
-0.14602919 -0.0026382338 0.78361845
-0.076639876 -0.05823125 0.7730587
-0.008253692 0.007315648 0.75697356
0.049792953 0.06906673 0.9167062
0.034306016 -0.04264602 0.76622576
-0.19565195 0.054939695 0.93026775
-0.14582078 0.055038344 0.88841146
-0.21211003 -0.034375325 0.84980667
-0.10856965 -0.044601962 0.7799493
-0.030955428 0.007046119 0.7191737
0.07032995 0.029592024 0.7940683
-0.10608011 -0.011575977 0.78156257
0.041415665 0.046697736 0.7821572
-0.22327985 -0.077130616 0.88244456
-0.064289905 -0.006569422 0.7643281
-0.13431714 0.0022741298 0.77180004
-0.18843654 0.02862159 0.7961834
-0.14226536 0.007792989 0.7738231
-0.18875407 0.04928955 0.9175735
-0.19192773 0.05116845 0.9140897
0.06391227 -0.014842 0.7584375
0.11846483 0.036469795 0.8548275
0.0958364 -0.004431953 0.7477323
-0.16302769 -0.060865447 0.8122342
0.04797268 0.052568156 0.841872
0.053830378 0.024536846 0.7758018
-0.18603161 -0.062771216 0.8382753
-0.22096182 -0.016086318 0.8248677
-0.23544666 0.03547094 0.93326813
0.112785295 -0.018335981 0.7491675
-0.12526938 -0.08104039 0.83353686
-0.13308908 0.035481893 0.8144688
-0.0691948 0.07552659 1.0243207
-0.13550569 -0.04755895 0.8141766
-0.2241791 -0.008259844 0.81269294
0.027786493 0.0684147 0.8617093
0.010214681 -0.0038454991 0.76737565
-0.11010728 -0.029685117 0.77192926
0.005636315 0.01080613 0.7540692
-0.20738049 0.028043045 0.8717835
-0.10490575 0.05251661 0.89304954
0.05543561 0.05338129 0.88005817
-0.06538942 -0.025989199 0.7712505
-0.23887813 -0.041741565 0.8857278
-0.1885656 -0.07070229 0.8765237
-0.15959388 -0.04359096 0.8267224
-0.18262953 0.020692607 0.8388814
-0.28933665 -0.0032195614 0.9038549
-0.16952509 -0.031006696 0.7473152
0.01252198 0.03441682 0.88910306
-0.106553994 0.07613155 0.98500043
-0.018819084 -0.03995737 0.77233493
-0.08823564 -0.02018793 0.77355033
-0.08639747 -0.005964486 0.7786714
-0.1731576 0.03797356 0.8232306
0.047072206 0.05347441 0.8616861
-0.0164338 -0.022663554 0.7581201
-0.10130421 0.030457675 0.7836066
0.044179752 0.050130695 0.70023197
-0.11051921 0.000299708 0.7759805
-0.21433383 0.041823253 0.8879534
-0.1864144 0.053492498 0.8944862
-0.22552446 0.018680327 0.9050752
-0.10134103 0.07142975 0.95057386
-0.087904006 0.0008970909 0.7383658
-0.1630047 0.042018868 0.87269634
-0.06045619 -0.044156127 0.7555289
-0.09212058 0.07975483 0.92669815
-0.15822284 -0.044930488 0.8131127
-0.14831866 -0.003836786 0.7891179
-0.18469201 0.05218927 0.88197404
-0.025762994 -0.021044513 0.76520234
-0.121270016 -0.07107787 0.80519795
-0.11081562 0.02445925 0.8294461
-0.19994074 0.049369805 0.8844601
-0.040172875 0.04896359 0.71683764
-0.24701475 -0.043966554 0.8617109
-0.010027386 0.02323369 0.683832
-0.12780683 0.018452581 0.8615208
-0.14725965 0.038646333 0.8463606
-0.12754557 0.007241196 0.7926253
-0.026555592 -0.03161484 0.7369584
-0.027768066 -0.013900413 0.74731076
-0.2491455 0.0018463405 0.8883216
-0.21119587 -0.07964239 0.89854866
-0.1960912 0.0047028693 0.8050342
-0.24940829 0.013528174 0.9103007
-0.09609142 0.0695806 1.0532352
0.021374565 0.038567208 0.69827473
-0.08221606 -0.0017467579 0.7805391
-0.10900572 -0.04748535 0.81013817
-0.060956296 0.012306536 0.7875665
-0.31044406 -0.0500849 0.8998186
0.14444484 0.024102978 0.83054405
-0.21088111 -0.07353528 0.87549126
0.06995238 -0.02264969 0.75439316
-0.10575603 -0.027888063 0.7579134
0.006195785 0.028116444 0.7682127
-0.13129924 -0.025774328 0.7940547
-0.11211752 -0.050962612 0.782192
-0.04718479 0.075373195 0.9902446
0.10255647 -0.0365447 0.7367213
-0.21905974 -0.0227422 0.83073294
-0.061625242 0.06500367 0.7013534
-0.20499106 -0.018410914 0.8108956
-0.21569198 -0.07619128 0.8927336
0.035402015 0.02785365 0.7151
0.09212416 0.040029816 0.7591373
-0.1663658 0.07427763 0.9206819
0.09504493 -0.010271613 0.764304
-0.21631254 0.011987164 0.8772666
-0.056193985 0.011052087 0.8125287
-0.093156084 0.026691299 0.8339302
0.027145265 -0.02533296 0.7715485
-0.1606967 0.0335909 0.8642852
-0.24545275 -0.010457136 0.8511519
-0.0045368928 0.016499413 0.7087338
-0.086154394 0.02323259 0.7933577
-0.21807693 -0.034257747 0.8355997
0.03069905 0.034685772 0.7220678
-0.12666242 0.060120363 0.8833869
-0.2887706 -0.031408228 0.87295103
-0.23298472 0.07651874 0.9521393
-0.06394809 0.010886177 0.7766168
-0.21440692 0.030200943 0.885229
-0.04661266 0.045671508 0.7510316
-0.07077232 -0.0045481976 0.80944103
0.05829255 0.018765736 0.8317959
-0.06050193 0.048776556 0.7947054
-0.08755094 -0.029209698 0.762241
-0.13040799 0.05223101 0.8694717
-0.22875845 0.007417199 0.8640312
-0.24964292 -0.07132579 0.9255565
-0.10554964 0.033262294 0.81583285
-0.24281494 0.034771882 0.980402
-0.1656741 0.021088291 0.8216763
-0.15925041 -0.021169875 0.836502
-0.08821691 -0.07312013 0.8073963
-0.30709547 -0.034737926 0.89321494
-0.01861379 -0.0013942642 0.70961326
0.014300974 0.0068056323 0.7052338
0.08377196 -0.016840298 0.7606548
-0.18266085 0.008667858 0.81620866
-0.18845768 -0.03869671 0.86850035
-0.08040391 0.09722309 0.99092865
-0.06201993 -0.0316322 0.75951123
0.04940547 0.02187269 0.7474473
-0.08268899 -0.007706152 0.75390977
-0.15128961 0.0837389 0.9225788
-0.07676533 0.05213709 0.874407
-0.13641329 0.06523498 0.8556858
-0.28161857 0.015757993 0.92004615
0.11094573 -0.003586952 0.76770645
-0.004378383 0.048649006 0.77214557
0.06435024 0.008013198 0.7528827
-0.23050897 0.048472792 0.9263803
0.09237347 -0.029266873 0.74164444
-0.2412514 0.04842543 0.948885
-0.10252557 0.030994482 0.80909616
-0.07803873 -0.009204497 0.73954993
-0.19079237 0.053431824 0.89267546
-0.10915101 0.025631081 0.8008835
-0.09981459 0.08086554 0.95648986
-0.011690735 0.0031390479 0.746528
-0.20660414 0.007950291 0.8331593
-0.25407076 -0.065521345 0.89897776
-0.19712403 0.017219353 0.860684
-0.008862812 0.071850285 0.874506
-0.23571527 0.06371583 0.9868503
0.040203486 0.038138658 0.6892957
-0.19539133 0.020473108 0.84783536
0.0028925599 -0.010832292 0.75285715
0.031715453 -0.020442413 0.763752
-0.14119087 -0.026716974 0.7821916
-0.17625457 0.06278219 0.90948004
0.047109127 0.031951055 0.79154253
-0.1352258 0.024097417 0.8153218
-0.0732137 -0.046101544 0.75034857
-0.05561198 0.017289586 0.76185226
-0.019505242 0.0615949 0.7328339
-0.15490639 0.06320526 0.8948601
0.08029377 0.044767693 0.88121814
0.09350269 0.034722324 0.8083932
0.12019157 0.0384969 0.8803138
0.03985429 0.0084708985 0.78509116
-0.0627095 0.005098837 0.80175847
-0.2143994 0.034191314 0.9120016
-0.121558435 0.06635734 0.90066665
-0.13293807 0.06036484 0.85976
-0.017007053 0.015907176 0.75498533
-0.02207714 0.044748224 0.7102623
0.04124003 0.081442215 0.84588253
-0.0027304837 0.014088529 0.7118078
0.123731144 -0.00868546 0.72371185
-0.15445834 -0.07364755 0.8589661
-0.0048963213 0.0054331035 0.7561441
-0.08030971 -0.029980907 0.7405179
-0.007243114 0.07408469 0.7293348
-0.0049696728 0.0629275 0.7386241
-0.24428847 -0.03284814 0.8519918
0.05970182 0.07515677 0.8540468
-0.041963942 0.031115903 0.8390812
-0.0053817695 -0.009793419 0.73848313
-0.1451548 0.020560421 0.8081941
-0.051036794 0.011022739 0.7499523
-0.23894517 0.0111740315 0.89796364
-0.043809913 0.03896806 0.9451104
-0.02450141 0.037766784 0.7119662
-0.09844248 -0.014205226 0.77556294
-0.26836205 -0.04698746 0.88268507
-0.25088942 -0.01092373 0.8904326
-0.22612157 0.016219877 0.86208194
0.032542292 0.0084596 0.80963314
-0.05928462 0.03368608 0.847255
-0.13987729 -0.003147963 0.78850245
-0.17484206 0.0024716961 0.8361949
-0.17430224 0.022355638 0.8185283
0.008801367 0.062793076 0.74011403
-0.14178562 0.058559835 0.8490655
-0.07174675 0.007064354 0.7992475
-0.28902012 -0.032852646 0.8980977
-0.26730007 0.005459718 0.8736735
0.02339747 0.022904312 0.7085496
0.003671328 0.0033026608 0.7134232
-0.017158188 -0.044218637 0.7690184
-0.04714105 -0.022371415 0.74791884
-0.18647927 -0.0063252607 0.8211563
-0.15556069 -0.0731228 0.8483769
-0.07307374 0.02533776 0.8286898
-0.18620192 -0.063784674 0.84935945
-0.2710142 -0.024065375 0.9063361
-0.14243275 -0.056542438 0.8263074
-0.2533641 -0.03911797 0.88924277
-0.2571063 -0.02196551 0.8449743
-0.019588657 0.013844731 0.7669615
-0.040325005 -0.03646655 0.7428273
0.107708335 0.06185974 0.8396
-0.14978585 -0.05520669 0.8210601
-0.021696698 0.00041882473 0.7553852
-0.032094903 0.014681324 0.6886267
-0.22376457 -0.06564329 0.87666094
-0.04757383 -0.012559999 0.7759401
-0.2448114 -0.05360215 0.89545316
-0.024051737 -0.037301473 0.74698126
-0.10067906 0.043449685 0.88338274
0.087415576 -0.004658835 0.7530561
-0.1518272 0.08829135 1.0127435
-0.18582624 0.043187924 0.8758915
-0.0047632055 0.016991585 0.77567935
0.0118053425 -0.008936617 0.763493
-0.17441338 -0.06787231 0.883035
0.037231732 0.018946433 0.71131736
-0.103990026 -0.039725523 0.76352644
0.0077785347 0.002779203 0.7080983
-0.2819993 0.0056395866 0.94312674
0.0018096474 0.034594428 0.77577406
0.092197195 -0.02138348 0.75191075
-0.10906753 0.045015663 0.89751333
-0.24449721 0.046699658 0.97108287
-0.025658583 0.02553038 0.73406726
-0.044010103 0.034623235 0.81145275
-0.12008408 -0.067173384 0.7935272
-0.11201631 -0.0057424004 0.77546746
-0.15467292 0.01918337 0.8002674
-0.1487248 -0.06675745 0.8433873
-0.058601018 0.062775336 0.9512887
-0.281127 -0.055096913 0.8790082
-0.04005888 -0.04115823 0.7420634
0.08870633 0.037572592 0.88150275
-0.23927869 -0.06976911 0.88161594
0.019127956 -0.0069098407 0.7673043
-0.031307798 0.09897761 0.7299463
-0.2500353 -0.04908659 0.8566735
-0.22223012 0.025820473 0.8789837
-0.20658974 -0.0025991309 0.82593304
0.016015429 0.018867282 0.6942718
-0.11702631 -0.0074881 0.78137565
-0.22266093 0.011150619 0.856317
0.02933518 0.038069513 0.82695395
-0.06075645 0.025899192 0.83925784
-0.22584543 -0.03922805 0.87180203
-0.20816977 0.02327956 0.84533185
-0.29572678 -0.029685024 0.89745086
-0.15472606 -0.03807876 0.81470007
0.11714869 0.02407702 0.73786205
-0.15402567 0.051457215 0.8794374
-0.1414062 -0.010173617 0.7650743
0.024443626 0.006554435 0.7983042
-0.24776849 -0.01657322 0.8688718
-0.16725801 -0.06897554 0.84392035
-0.100741014 -0.0045462227 0.757526
-0.04966046 -0.038067587 0.7609398
-0.12379821 -0.041799553 0.80855304
-0.23974644 -0.015148664 0.84151095
0.05630371 0.00898817 0.7858092
-0.051958837 0.052644823 0.95690465
-0.20119636 0.05464649 0.8559853
0.042108014 -0.038151424 0.7705043
0.10297664 0.009005668 0.72980344
-0.17898001 0.068605915 0.9362746
-0.06565267 0.0052721472 0.76109457
0.078493565 0.002423602 0.7843137
-0.106936276 0.035196327 0.88229346
-0.24035476 0.031045776 0.9165173
0.07815705 -0.0017328012 0.76372147
-0.077358715 -0.03749357 0.75380003
-0.2461773 -0.06983541 0.8729679
-0.110916205 -0.023316205 0.7725276
0.0552945 0.029740388 0.7107818
0.013594523 0.021393752 0.7054862
0.028644945 0.047570087 0.7146211
-0.115161255 -0.054582704 0.800187
-0.16813862 0.057537623 0.91566443
-0.22948018 0.0133324135 0.8440806
-0.011648915 0.071464986 0.74498236
-0.21433726 0.03662269 0.86752343
-0.016192121 0.053063948 0.73565584
-0.14931954 0.0288827 0.78656745
-0.013294013 -0.005384769 0.763869
-0.19323552 -0.03668632 0.87147486
-0.19394957 0.07078785 0.90586454
0.021087378 0.015895259 0.7027278
0.09604741 -0.05461995 0.76316446
-0.12676756 -0.027020527 0.7951255
-0.21001859 0.017349007 0.81081223
-0.14893463 0.09864252 1.0356193
-0.23320542 -0.04379838 0.8468724
-0.17359048 -0.006946891 0.80893
-0.22354138 -0.07404672 0.9068961
-0.0069830148 0.033213764 0.7785488
-0.008388139 -0.01129971 0.75242347
-0.07972209 -0.053703092 0.7822555
0.014185191 0.024856092 0.68864065
0.08360402 0.03745375 0.86163265
0.09335008 -0.03183795 0.74045485
0.010946076 0.05201864 0.72943807
-0.2138639 -0.05981499 0.85062885
-0.18307593 -0.02154943 0.84291214
-0.19570118 -0.07202217 0.9009895
0.042118553 -0.004588878 0.75987345
-0.11946363 0.048081167 0.8436136
-0.15311731 -0.032467917 0.7970544
-0.05560463 0.07961032 0.9605491
-0.016855072 -0.033155043 0.7588914
-0.19779058 -0.055597533 0.88263
-0.20913261 0.06855745 0.8879632
-0.13143587 -0.021303955 0.76835376
-0.11120223 -0.044052348 0.79728955
-0.08248668 0.03695107 0.8813151
-0.0594337 -0.04541329 0.75077474
-0.22042088 -0.06172878 0.8950634
-0.07084013 0.023798939 0.7735392
-0.08369643 0.068033166 0.98767453
-0.24005675 0.06648201 0.9928239
-0.12747723 0.046036735 0.9218257
-0.005438523 0.0996676 0.8026633
0.038750157 -0.028772315 0.78838086
-0.25233096 -0.00606249 0.89519304
-0.07352714 0.014708418 0.7807003
-0.22600491 -0.05179053 0.8544493
-0.02029227 -0.04671071 0.74858785
-0.14456584 0.08506561 0.92842007
-0.12190605 -0.07218753 0.7877556
-0.08903129 0.10304428 1.0284156
0.0017035955 -0.024249116 0.7631191
-0.21170455 -0.06791039 0.89323187
0.066188596 0.038503677 0.7931784
-0.24477865 -0.026516873 0.8503051
-0.116674155 -0.06915175 0.7987995
-0.14847662 -0.05573562 0.8343884
-0.18875886 -0.06513546 0.85277575
-0.25244483 -0.081604816 0.90761936
-0.08470128 0.0069521023 0.7161263
-0.20158477 0.09050303 0.9987308
-0.18138292 -0.051962882 0.85488915
-0.15806092 0.03609261 0.8458943
0.08207327 -0.028585156 0.75567824
-0.10730925 0.0045579253 0.77425015
-0.06239757 -0.005009601 0.76074076
0.11870091 -0.011477357 0.74050516
-0.13951011 0.010985285 0.8032993
0.015125046 0.015972996 0.7547836
-0.14874619 -0.047712248 0.85694873
-0.023704838 0.068281725 0.9826409
-0.10428087 0.04187085 0.819278
-0.01450949 0.024796577 0.70716643
-0.23177417 0.019196209 0.81743455
-0.089469075 0.029906217 0.8268931
0.04165658 0.036852155 0.8702797
0.12986949 -0.0038375228 0.7423764
0.13287896 0.016965155 0.7630525
-0.2663504 -0.015260148 0.887611
-0.13679431 -0.0029124818 0.79028666
0.06728476 0.00287303 0.7596896
-0.03843353 -0.0016674498 0.7255666
0.062973626 -0.013098076 0.76271653
-0.24287106 0.01607881 0.9401643
-0.06932448 0.07850232 0.97777945
-0.10610694 -0.04188965 0.7953312
-0.17117016 0.08019166 0.9511646
-0.22188884 -0.08445458 0.927862
-0.25558713 -0.03607594 0.8576561
-0.057960663 -0.039912317 0.7770182
0.044902936 0.023915717 0.6898862
0.022018248 -0.054051302 0.7668176
-0.00877064 -0.020808792 0.76449895
-0.1004159 0.04824241 0.71560454
0.07065108 -0.026505314 0.762574
-0.01215201 0.034535456 0.78379655
-0.2549517 0.046654116 0.96038324
-0.08248517 -0.05828813 0.7773315
-0.022230286 -0.02532678 0.7491126
-0.22684662 0.06687494 0.9628416
0.068529 -0.029331028 0.76121575
0.025293814 0.051595725 0.735727
-0.256 -0.054196924 0.8876232
-0.054461315 -0.058649562 0.7687428
0.069266535 -0.021425188 0.7713186
-0.097913586 0.0069276625 0.8342156
-0.21402965 -0.03245694 0.8422698
-0.14779836 0.031651 0.8732134
-0.25584716 -0.07950622 0.8891104
-0.26657367 -0.077782705 0.8934574
-0.06313119 -0.03201353 0.77829736
-0.20244884 0.0016757859 0.82516974
0.110124215 -0.004100657 0.75190014
-0.098620184 -0.04990022 0.79642165
0.043964405 0.036139358 0.6871033
-0.1304164 -0.00070330757 0.7813586
-0.029008873 -0.02122005 0.7656549
-0.06747731 -0.011478468 0.7672358
-0.09615052 0.03505639 0.8337494
-0.11255225 -0.02214594 0.766623
0.042015564 -0.031257175 0.77304256
-0.22249071 -0.04684035 0.8878613
0.03702525 0.022184476 0.79893595
-0.14588615 3.3258926e-05 0.7939319
-0.24203297 -0.03926142 0.877464
0.031364653 0.031040672 0.7731908
-0.19229932 -0.061408304 0.85717577
0.05333938 0.022338405 0.75703907
-0.17973937 0.012923814 0.81157774
-0.19625789 -0.060963795 0.8719804
-0.15757881 -0.028456528 0.8465259
-0.23005144 -0.061461344 0.8842053
-0.22928421 -0.0015946307 0.8286333
-0.14193943 0.037807647 0.8216162
-0.13722336 -0.05092148 0.7950957
-0.10219791 0.021511318 0.81275916
-0.11752949 -0.07227511 0.790549
-0.008662413 0.04287861 0.7742715
-0.2215782 -0.028741378 0.83267015
-0.076817155 -0.05037947 0.7798869
-0.06331777 -0.029614946 0.7703497
-0.0674758 0.019369785 0.6902117
-0.24679548 0.043886002 0.9750206
-0.1347718 -0.008203981 0.77077407
0.048619695 -0.0148098 0.7581363
-0.19804083 0.049281385 0.8669055
-0.05255487 -0.033406854 0.7561747
-0.23492631 -0.028012741 0.83566254
-0.043099567 -0.04125344 0.75806093
-0.060189053 0.044670515 0.880785
-0.07223337 0.05540557 0.7745534
0.0061600404 0.01385434 0.7746769
0.06598051 -0.0057057887 0.74934113
-0.14449376 -0.04900714 0.8276408
-0.075663224 -0.05117806 0.7536864
0.05487452 -0.016028494 0.7661137
-0.07233599 -0.032815084 0.7882174
-0.14905818 0.021412354 0.83446044
-0.13786675 0.056854583 0.8735623
-0.24266 0.05446028 0.9812108
0.10093132 0.033041283 0.8646094
-0.22585441 0.0471925 0.9360427
0.12746899 0.043717403 0.824631
-0.25384295 -0.046967383 0.876457
-0.08458661 0.032983094 0.85585296
-0.16622911 0.0018092282 0.7845424
-0.28191325 -0.020965397 0.87179697
0.0052144956 0.034193058 0.727715
-0.1886337 -0.06669256 0.8768355
0.05767136 0.01920815 0.78675157
-0.27087316 -0.0033603664 0.89690155
-0.11631535 -0.0024338705 0.7688097
-0.09357804 0.053890113 0.87162745
-0.2586611 -0.050331224 0.89336723
-0.104791 0.0035817064 0.777361
-0.14402315 0.023513567 0.811911
-0.09404831 0.048382964 0.8440832
0.09318999 0.025988908 0.7479312
-0.23239148 0.09076791 1.0196196
-0.2101693 -0.0014252467 0.8203567
0.05910919 0.013862885 0.75947726
-0.078265674 0.08194435 0.98373246
0.009231476 0.016713556 0.779022
0.042979367 0.0514899 0.77074647
-0.054330714 -0.017676786 0.76243323
-0.25130707 -0.07819603 0.8923202
-0.10421254 -0.06893306 0.81362945
-0.151796 0.00241645 0.8044566
-0.007922582 -0.005712822 0.7562723
-0.116693735 0.0038985498 0.81788033
-0.187263 0.08007036 0.9800915
-0.17852443 -0.0667146 0.8833202
-0.02683344 0.067488566 0.9339295
-0.254389 0.0031300567 0.9159171
-0.12844157 -0.009625418 0.78344923
-0.25474647 -0.089335136 0.919607
0.057926297 0.016337154 0.80895084
-0.07863134 -0.059506472 0.76062286
-0.10591492 0.046777096 0.85676277
-0.059267726 -0.036921605 0.74593675
-0.12965673 -0.0015802195 0.78475296
-0.27116513 0.010152208 0.932857
0.09578396 -0.021732895 0.78227687
-0.1021876 -0.044883586 0.78270185
-0.20262127 -0.073294245 0.8538567
-0.24210273 -0.024552444 0.8559796
-0.052027307 0.0410917 0.7554316
-0.1969277 0.07188323 0.8903063
-0.155665 0.014365407 0.78138804
0.005919832 0.038426068 0.7957963
-0.15922926 0.09785598 0.93104696
-0.08079697 0.030518899 0.8505078
0.026204214 -0.0010459096 0.761195
-0.043895137 0.01679415 0.74540305
-0.025414554 -0.049462363 0.7586132
-0.17268337 -0.033987444 0.84992677
-0.22964783 0.024861734 0.85854334
-0.20847408 -0.0059967316 0.8181834
-0.16599332 0.037769683 0.8389097
0.07440816 0.010573889 0.77465546
0.02798754 0.041460373 0.8519284
0.04533852 0.023579381 0.77541107
-0.012747014 0.05874397 0.75566876
0.063178055 0.032084845 0.76031065
0.009354479 0.03912774 0.74342626
-0.09937602 0.030566223 0.84122646
-0.130694 0.08674937 0.90656775
-0.055510044 0.031668704 0.78177816
-0.1804669 -0.05931457 0.8647488
-0.10803587 0.047465786 0.869719
-0.022332473 -0.0454935 0.7695313
-0.049479857 0.07095003 0.9153223
-0.033624362 -0.032809246 0.7532456
-0.21860573 0.0068455585 0.7865055
0.029889934 0.05081727 0.742914
0.06881381 0.0051473393 0.7521783
-0.032225862 0.019907484 0.71647364
-0.22764745 -0.063432805 0.8863994
-0.005768312 0.046754573 0.6906433
0.09202714 0.01556166 0.83800995
-0.11117248 -0.014136326 0.7653443
-0.035544366 0.02875077 0.73859453
-0.18320261 -0.0645884 0.86351085
-0.17328465 0.04480265 0.8657775
-0.17283928 0.006825019 0.7886951
-0.104947165 0.04991312 0.8933715
-0.21773387 0.022054378 0.85727465
-0.18905151 0.022488123 0.8107466
0.02474058 0.022616215 0.81480205
-0.18209425 -0.05877674 0.86364675
-0.08891691 0.031454656 0.8463179
0.032048393 -0.017009884 0.7662369
-0.20220174 0.008836256 0.8215736
-0.17560908 -0.027330736 0.82523894
-0.2320295 -0.029423608 0.84082633
-0.2231324 -0.048350252 0.8845325
0.082733616 -0.05367442 0.76761097
-0.18945718 0.07081112 0.9202564
0.039791767 0.03751438 0.6828787
-0.25885534 0.07049362 1.0282769
-0.21600656 0.033678368 0.87052274
-0.27337602 -0.033204906 0.881152
-0.15534751 -0.019361736 0.7812517
-0.07988613 -0.056104764 0.79104525
0.009051412 -0.007896608 0.78637934
0.063245356 0.02512031 0.7492486
-0.1641717 -0.06771307 0.84463537
-0.1705449 -0.027741281 0.8143343
-0.29238188 -0.040395994 0.8658152
0.04563857 0.02452132 0.77593094
-0.14497893 -0.05486862 0.8324224
-0.087359324 -0.053002615 0.7796887
-0.19062944 0.055664387 0.83150554
0.012266129 0.01951979 0.69853765
-0.19564052 0.02305826 0.84545594
0.078844704 -0.02135542 0.7739812
-0.27700275 -0.022566281 0.89030534
-0.2500338 0.014317698 0.87534934
0.12575388 0.02027886 0.7640264
0.06018729 0.05504988 0.8441856
-0.11613782 0.03997196 0.838628
-0.016599046 -0.024553727 0.75897
0.017131485 0.060298435 0.79321724
-0.101220496 0.060054112 0.8839535
0.031911492 0.024635084 0.6980134
-0.06298093 0.009424117 0.75271463
-0.14851755 -0.03441298 0.7933019
0.065266825 -0.04728026 0.7714515
-0.110001706 0.013693955 0.7903741
0.039176475 0.033124905 0.7054794
-0.051814605 -0.002024877 0.7637314
0.06281719 0.030269649 0.7740276
0.10130308 0.035886724 0.7424647
0.067225456 0.005993114 0.7689289
0.1009316 0.012900018 0.7264933
0.020360574 0.050953012 0.73059076
-0.18748128 -0.013526632 0.8070555
-0.10341577 0.069513075 0.9093717
-0.11566133 0.07524411 0.95140594
-0.21634005 -0.00087837595 0.8607358
-0.14700876 0.03467599 0.8141831
-0.11774777 0.03309105 0.8177335
-0.19142896 -0.021563439 0.8459913
0.029302724 -0.03963264 0.76582205
-0.14204924 -0.010085932 0.7564758
-0.078639954 0.017455017 0.8069652
-0.1260083 -0.03534063 0.7886441
-0.15580042 0.052352756 0.8575653
-0.10692316 0.04759648 0.8361606
-0.1371062 0.052524045 0.8899553
0.024553053 0.011080039 0.7526339
-0.011653467 0.08056799 0.7410507
-0.26644483 0.030999703 0.9493411
-0.039877113 0.03566422 0.9555089
-0.15319619 0.06557741 0.9355298
0.1177112 -0.033991795 0.76800036
-0.2819747 -0.046466228 0.90881455
-0.27477506 -0.018807795 0.89147234
-0.13291925 0.050989978 0.8646759
0.06689434 -0.0063318103 0.76888067
-0.023325594 0.052129716 0.74415326
-0.250951 -0.06736943 0.93451643
0.023706619 0.034984354 0.72137
0.07419374 0.039890733 0.8155312
-0.12057834 -0.050581496 0.8292785
-0.12353857 0.03214158 0.83303845
-0.18219462 0.041270256 0.886036
0.019507816 0.022928502 0.71349806
-0.14234374 -0.041215245 0.8096448
0.087621816 0.03453195 0.8074914
-0.040228084 0.04125555 0.7698783
-0.24892499 0.04414806 0.9290778
-0.09019782 -0.014575961 0.78527254
-0.03154242 -0.04479967 0.7829449
-0.15580617 0.035688404 0.8604663
0.08773381 0.06387816 0.8610843
-0.18046314 -0.014607877 0.81174636
0.010204708 0.014852678 0.72033656
-0.018744966 0.04818935 0.7522364
0.052403744 0.03780266 0.8238798
-0.05828913 -0.0015410213 0.7834399
-0.0930761 0.06842919 0.91766304
0.076269515 0.03875903 0.8113998
-0.19961277 -0.025549715 0.86048967
-0.20213717 -0.009604355 0.8323007
-0.012148666 0.086408675 0.71584594
-0.25195852 -0.055233058 0.9197283
-0.0063357865 0.0059670643 0.6882394
0.13217224 0.016289018 0.8907973
-0.19618651 -0.065833345 0.8748715
-0.09881171 -0.037913058 0.78053135
0.08387607 -0.06038926 0.75810564
-0.022799931 0.026752261 0.7692729
-0.18000822 0.031204678 0.81137794
-0.16320196 -0.042235833 0.8368209
-0.1462195 0.026706152 0.83867943
-0.060020637 0.001180937 0.763968
-0.22540702 0.06762515 0.9857997
-0.065621376 0.037644394 0.7563428
0.06837031 0.043595865 0.85122263
-0.10366583 0.012098657 0.8072839
0.019002661 0.022664396 0.7711409
-0.083175234 0.036318947 0.8370057
0.056225646 0.023250172 0.7896534
-0.010678357 0.021693928 0.7252562
0.012871338 0.043821238 0.81607413
0.023723474 -0.040727414 0.75795156
0.09647446 -0.022145135 0.7227239
-0.054776598 0.026998077 0.7809299
-0.28139436 0.009012124 0.972198
-0.010740825 0.077209845 0.73197174
-0.18016729 -0.020447604 0.83685285
-0.06675561 0.06434732 0.95914763
-0.17995776 0.030108929 0.8401453
0.066316456 0.030149555 0.8090046
0.10467784 0.017252669 0.7451834
0.06931786 -0.01926411 0.77609026
0.08637556 0.036757875 0.8250912
-0.16662091 -0.053668283 0.81393385
0.11489042 0.028226942 0.83798677
0.07965687 0.04049043 0.8264405
-0.282517 -0.06412119 0.92945063
0.026296461 0.02883176 0.77183294
-0.05672812 0.046420693 0.89738744
-0.24644233 -0.028141558 0.8588429
0.019504147 0.05563936 0.76254195
0.023384864 0.040915176 0.7085792
-0.009250843 -0.02645144 0.7650876
-0.05628135 0.0364755 0.7454233
-0.038475137 -0.01744215 0.75404894
-0.05049859 0.029514693 0.85441816
-0.1903909 0.013462154 0.80770826
-0.17701752 0.046985094 0.8673063
-0.003461442 -0.00078378664 0.76503587
-0.08256031 0.047629714 0.7301162
-0.2650771 -0.029965134 0.8808393
-0.106872134 -0.061347377 0.7900653
-0.12781169 0.08943176 0.9557725
-0.023732496 0.018155435 0.7282349
0.10316129 0.020499464 0.7663628
-0.111253895 0.07210721 0.9299388
-0.19930482 0.027247641 0.84720397
-0.27278242 -0.05729773 0.88338876
-0.07980762 -0.016828278 0.750909
0.010078112 -0.010687591 0.74887174
-0.1525867 -0.06387252 0.8130705
-0.14276364 -0.05214455 0.83409
-0.09534785 -0.041390494 0.77337545
0.015788015 -0.003177354 0.765919
-0.15786125 -0.025444213 0.82799816
-0.21469833 0.077736326 0.9588299
0.030242238 0.05907654 0.7244205
0.06335688 0.020083616 0.7807718
-0.09737307 0.07213038 0.8711738
-0.12195234 0.0011144597 0.77974164
-0.13494924 0.05980743 0.8711265
0.048653536 0.035971794 0.87856996
-0.03103596 -0.039627906 0.76275444
-0.059277806 -0.022806982 0.7715894
-0.25339827 -0.016861718 0.80307597
-0.20481558 -0.10339496 0.92739934
-0.02086632 -0.0034683072 0.7726796
-0.23773797 -0.030959263 0.8601824
-0.008397032 0.0927018 0.7156931
0.0720476 -0.013172326 0.78116184
0.008058861 -0.0010629739 0.6909544
0.03530133 -0.022859905 0.7559857
0.049091265 0.017297305 0.76238364
-0.2558932 -0.020523323 0.8476809
-0.29812366 -0.0451146 0.86220825
-0.25065738 -0.054826647 0.8660457
0.06116648 -0.03260035 0.7567288
-0.050267257 -0.03389911 0.750842
-0.20813657 -0.007567823 0.817888
-0.24080357 0.032073066 0.95415586
-0.029340936 0.06353135 0.7299018
0.03347284 0.03680515 0.8151616
-0.07906516 0.07952604 0.96802497
0.059288524 0.02246774 0.84312165
-0.211891 -0.016992053 0.82057583
0.044303622 0.032002196 0.8419083
-0.100678355 0.011789049 0.80379105
0.0019879213 0.046805877 0.7404662
-0.11090475 0.008804425 0.8071368
-0.109540366 -0.050739743 0.7856691
0.04599967 0.046129555 0.7635305
-0.06028595 0.06262047 0.9208502
0.1185953 0.022341006 0.73387057
-0.12099572 0.074936375 0.95114404
-0.24705337 -0.07722854 0.90871423
-0.09601127 0.068775184 0.9283552
-0.045344718 0.030448716 0.6974881
-0.21318164 0.06559991 1.0516938
-0.21286198 0.009744745 0.8620631
-0.11494276 0.05358265 0.8833753
-0.20665087 -0.048532084 0.88233674
0.09490366 -0.0040856013 0.7625866
-0.066933244 0.051561475 0.71862155
-0.20682287 -0.021358706 0.83708787
0.12739599 0.016867636 0.7374634
0.044370092 -0.032582503 0.76060086
-0.25298747 -0.025641842 0.865838
0.083920926 0.023220722 0.8229655
-0.22651228 -0.039693575 0.87206304
-0.10613626 0.05915482 0.95993084
-0.07919128 -0.02613658 0.76232934
-0.20868134 0.03958466 0.8780904
-0.12148382 -0.023176856 0.7821605
-0.27051786 0.014964507 0.9249853
-0.1721921 -0.050484445 0.81553555
-0.066274635 0.036959693 0.84492886
-0.22667675 0.05670421 0.9450224
-0.23065343 0.021901883 0.94507444
-0.2806725 0.01600405 0.9306038
0.072130226 0.008834533 0.7821176
-0.15334581 -0.086635225 0.8443592
0.036405653 -0.03526632 0.7682109
-0.12923801 0.08645297 0.93160987
0.12168663 0.016302072 0.755846
-0.3147675 -0.049848795 0.912358
-0.15584995 -0.0061059934 0.7992535
-0.07877718 -0.092146665 0.81487495
-0.08380996 0.05530884 0.84882295
-0.17852311 -0.06972366 0.88162446
-0.13821875 -0.027077101 0.78539413
-0.2672419 -0.06454306 0.9041163
-0.009197256 0.061988313 0.79310554
0.03387466 0.043587726 0.72042334
-0.19977923 -0.051415484 0.91147554
0.09086425 0.033196457 0.87608135
-0.0011996147 0.014907004 0.7792014
-0.0680781 -0.03985509 0.7653629
