ply
format ascii 1.0
element vertex 1387
property float x
property float y
property float z
end_header
0.12500621 -0.0048594 0.8618863
0.048654392 -0.071411334 0.8295986
-0.061369143 -0.060239818 0.8670118
-0.12495549 0.06680634 0.9881914
0.05861454 0.001415473 0.83574456
0.1307048 0.020548252 0.90746576
0.084947534 -0.05837725 0.82305706
0.13080338 0.009116443 0.8794638
-0.068891324 0.06406167 0.97990143
-0.107403465 -0.0020336017 0.90098643
-0.16387114 -0.00055674766 0.9272192
-0.07991209 -0.06629789 0.8947203
0.0200777 0.006415659 0.7694389
0.16067584 -0.012968825 0.8394757
-0.12606175 -0.0032116126 0.90098304
-0.18821378 0.027206823 0.9751092
-0.11844992 0.061309133 0.98844075
-0.11946606 -0.0009559132 0.8875338
-0.15728347 -0.0484091 0.9426579
0.06023161 0.015420582 0.75352407
0.16689025 -0.020895028 0.8144817
-0.0904654 -0.06488379 0.89752877
-0.030840369 -0.013826711 0.8485859
0.03526638 -0.010395669 0.7801721
-0.040541314 -0.042600792 0.8337268
0.08154113 0.010235832 0.8945252
0.032522064 -0.0051167896 0.77170986
0.05972947 -0.026531208 0.831827
-0.109456696 -0.04756228 0.8959539
-0.19930695 -0.04165084 0.96845716
-0.09668835 0.05702573 0.95967084
0.068978414 -0.05152933 0.8281404
-0.10552213 -0.05462678 0.89955324
-0.21296999 0.010256747 0.97947603
0.041503493 0.029077599 0.86654735
-0.014135703 -0.030481365 0.8213757
-0.21741022 -0.04759893 0.9796374
0.047895458 -0.013735567 0.7742824
0.14873654 -0.02084018 0.83584
-0.1142197 -0.02102113 0.87756044
-0.12951158 -0.018188957 0.8928366
0.0880474 -0.07204663 0.82471013
-0.12256606 -0.079810455 0.92443895
-0.022045715 -0.014220747 0.8525091
-0.11361972 -0.04032453 0.86860174
0.07559489 0.008479017 0.8774091
0.14923424 -0.05737633 0.8135061
0.052481107 0.037810594 0.8734166
-0.07789092 0.031126834 0.9320154
-0.009621568 -0.058328833 0.8270519
-0.0071094036 -0.01927846 0.8248073
0.05047424 0.039761532 0.9232848
-0.118046835 0.060263682 0.9731967
-0.075774424 -0.06967028 0.8831262
-0.1019454 0.06719372 0.98852754
-0.007356552 0.06358548 1.0286528
0.05396445 0.043680813 0.8170114
-0.027839167 0.037449703 0.9500383
0.10107691 0.014888316 0.87828195
-0.098056756 0.07876394 1.0263184
-0.20721395 -0.040060062 0.96395814
0.04801914 0.059964307 0.81052196
-0.23206262 -0.003131737 0.97832006
-0.10378047 -0.08238986 0.9147657
0.10005552 0.030193737 0.91430706
-0.04075649 -0.013719154 0.86714035
-0.027088298 -0.050636154 0.8312207
0.05318605 -0.04562244 0.829645
-0.22392462 -0.012942415 0.95092547
-0.09808121 0.04898225 0.94331366
-0.1162266 0.031237554 0.93329215
-0.21899666 0.029849226 1.0085963
-0.079043895 -0.03274286 0.8585932
-0.03556947 -0.08034741 0.8614662
-0.010500878 0.035210487 0.9455718
0.11815038 -0.00076260953 0.8665418
0.064413734 -0.048308928 0.8299547
0.08601827 -0.04665718 0.82714623
0.1032527 0.039395835 0.9293115
0.118426226 0.018289374 0.9072406
-0.04554535 -0.05187274 0.85416263
0.11172363 -0.0011648475 0.8631517
-0.1524292 -0.031018065 0.898837
-0.15721609 0.04730965 0.97239184
0.12196182 0.008320548 0.87540334
-0.12320076 -0.029558348 0.8884689
-0.05353232 -0.063449495 0.86790526
0.025394702 -0.010702753 0.78215593
-0.15760183 0.010425313 0.93121517
-0.13391897 -0.07966922 0.9403186
-0.22484306 -0.04899619 0.9827527
-0.061735574 -0.0059344163 0.87095726
0.003656174 0.06908224 1.0450308
-0.13005388 0.031289104 0.9298211
-0.1424229 0.005320947 0.91359967
0.1178459 -0.00846904 0.85595244
0.096676596 -0.03394153 0.8297839
-0.116797894 -0.009219991 0.8843378
-0.06911515 -0.016138736 0.85558397
-0.23181182 0.013289576 1.0021808
-0.04694723 0.015805542 0.9100953
-0.009785264 -0.01755584 0.8201042
0.08795095 -0.029571781 0.8284456
-0.032214176 0.06180895 0.9802027
-0.07078924 -0.032845214 0.85051405
-0.16394907 0.03455446 0.9682557
-0.16827287 -0.019111518 0.9107881
-0.21084835 0.0069171293 0.9776148
0.07998465 -0.06434196 0.8269021
0.02617499 -0.032026257 0.82896763
-0.011018312 -0.0663001 0.84012276
-0.09352712 0.03330768 0.9358965
0.06758278 -0.015676368 0.8350371
-0.11193657 -0.079474315 0.9290157
-0.06490728 -0.03654538 0.84223425
-0.0038360287 0.0041659623 0.82224107
-0.016415788 -0.07429082 0.86079675
-0.143293 -0.057141207 0.93345565
-0.20367469 0.019212611 0.98143417
-0.062026937 0.0013146638 0.89021814
0.10750937 -0.01751605 0.8467657
-0.025298567 0.025005817 0.9194657
0.050915092 -0.074796796 0.837215
0.045088425 0.052502856 0.8102124
0.04215323 -0.016198363 0.77212244
0.026299957 -0.050819084 0.82538885
-0.1607486 0.047593947 0.98330164
-0.056675244 -0.0202639 0.8567619
0.046895534 -0.052236974 0.8242845
0.028836565 -0.066092856 0.83155817
-0.031779338 -0.045134168 0.8336451
-0.0071694856 -0.015650773 0.8230142
-0.018128585 0.051272493 0.95082814
-0.051671676 0.0032513742 0.8980769
0.00404624 -0.033911724 0.81536734
-0.14185677 0.02133717 0.93480295
-0.05518708 -0.043079372 0.84864223
0.034896664 -0.0017834976 0.7734211
0.094827995 0.030890707 0.92500937
-0.17670828 0.01391142 0.9342479
0.0569171 -0.016404143 0.8301139
-0.045979783 0.04792518 0.95125276
-0.09238908 0.07989881 1.0198232
0.15834165 -0.010858007 0.84937775
-0.16893257 -0.074914545 0.97339106
-0.04406792 -0.064299256 0.8602829
-0.2009259 -0.055878446 0.9809515
-0.07119279 0.016396865 0.9108378
0.06854526 -0.06743294 0.8257778
-0.106493264 -0.020054542 0.8717257
-0.22688407 0.025421428 1.0167565
-0.21113588 -0.01776392 0.9380907
0.01887394 -0.04077162 0.8237609
-0.10537495 0.036695715 0.9388268
-0.22835308 -0.012739361 0.96015716
0.16978793 -0.016531335 0.82887155
0.14073099 -0.013413029 0.84993654
-0.06939426 0.049092293 0.95991683
-0.003209997 0.055948924 0.98786914
0.14006309 -0.013086153 0.8507938
-0.09756675 0.021971783 0.9238988
0.026813783 -0.07211414 0.83156365
-0.0011729863 -0.0075877155 0.8150751
-0.12372029 0.021325711 0.9298096
-0.048374802 -0.07544628 0.8733667
0.017570931 -0.036424056 0.82051706
-0.00243223 0.01213892 0.86718565
0.102724835 0.0047740065 0.8688711
-0.12205177 -0.025463235 0.87406564
-0.21510686 0.0069100233 0.9768304
-0.12245852 -0.072557926 0.9214184
-0.1425864 -0.022481073 0.89176625
-0.08637013 0.07659829 0.9944213
0.11489437 -0.05916023 0.81960475
-0.16054365 -0.074324 0.9605231
-0.17416018 0.030851983 0.96953577
-0.0077585117 -0.05060191 0.82092106
-0.10272925 0.0789144 1.0102221
-0.13496538 -0.07010826 0.93627
-0.1852832 -0.07550922 0.97847044
-0.22798984 -0.006515018 0.9727813
-0.19503851 0.049667276 1.0199938
0.17090687 -0.0323759 0.816012
-0.075828776 0.08789211 1.0468569
0.039946776 -0.061774217 0.82659256
0.07170485 -0.055805452 0.8295148
0.014049712 -0.0732828 0.8346536
0.089206405 -0.0544449 0.82388735
-0.20137326 -0.07731774 0.9855365
0.13233534 -0.04226192 0.8211573
-0.061136838 -0.07833384 0.88291377
-0.1973907 -0.027220517 0.9319991
-0.08536483 -0.010365183 0.8786653
-0.20939602 -0.045804437 0.97466195
0.14873005 -0.02645265 0.83335465
0.06356496 -0.042715658 0.8285936
0.0077007124 0.018363468 0.838958
0.102151215 -0.034296144 0.82735324
-0.17934294 -0.055790853 0.9671438
-0.040027063 0.0035163448 0.90184414
0.033706736 -0.009959115 0.7743882
-0.15731159 0.022388954 0.9480315
0.1148061 -0.06596789 0.82409686
-0.071554966 0.00845365 0.9046603
-0.19203559 -0.076294854 0.9794742
-0.00329953 -0.034892775 0.826004
-0.11659752 -0.08130798 0.9178376
-0.022093456 0.0071534943 0.8998874
0.10959381 -0.062234025 0.8238263
-0.13043126 0.038817745 0.9446042
-0.20182054 0.038431585 1.0112605
0.020950656 0.022806706 0.78591186
-0.18749739 -0.010537634 0.92671263
-0.041537207 -0.06713752 0.8570789
-0.1064085 -0.039395783 0.89104176
-0.19522095 0.05382136 1.0353914
-0.10887967 0.02217765 0.9165259
-0.15512241 -0.045228906 0.9332026
-0.24528317 -0.02116221 0.96138436
-0.14193359 -0.048223756 0.92561895
0.014790611 -0.024609659 0.82114977
-0.0048636827 0.06327769 1.0135133
-0.111722976 -0.04403011 0.8932752
0.10087621 -0.021706374 0.83958167
0.060121894 0.012154514 0.85051656
-0.045789678 -0.072052695 0.8635706
-0.18723066 0.0062428433 0.9510214
0.02293685 -0.007057035 0.8355879
0.17322275 0.01778546 0.92134273
-0.08541522 -0.07911418 0.9001604
-0.015324491 -0.0060204887 0.83213645
0.11900547 -0.044163242 0.8219731
0.02563431 0.012451036 0.79083997
-0.13948841 0.052414894 0.97516555
-0.17969398 0.021109194 0.9566358
-0.21261717 0.025621817 0.9995219
-0.029416826 0.050516985 0.946077
-0.1785319 -0.014562012 0.9113237
-0.23118624 -0.019871013 0.9569298
-0.20591097 -0.020005368 0.9365228
-0.17543428 0.050924018 1.0118136
-0.15113904 -0.024020068 0.8980702
-0.06882616 -0.061193027 0.8697308
0.035241168 0.035617553 0.80120635
-0.21011081 -0.07214388 0.9810707
0.034637485 -0.037071273 0.826786
0.057958756 -0.0065755676 0.8430989
-0.16089442 0.010533389 0.93418425
0.17740606 0.0076495134 0.91916394
-0.09302158 -0.020328563 0.8442574
-0.076362 0.07234705 0.9930763
-0.03892216 0.06851985 1.0141513
-0.045116305 -0.06967919 0.8677949
-0.06780812 -0.018004285 0.85756963
0.05794907 -0.065696836 0.8220017
-0.21051371 0.00047823507 0.96017087
0.04793396 -0.0112355035 0.7674454
-0.03974588 0.021150837 0.9149357
-0.07037 0.025141124 0.92781407
0.030229656 -0.034874678 0.8297407
0.094252795 -0.024830092 0.8351439
0.10766689 -0.00541123 0.8527069
0.12700398 0.00018998235 0.8711072
-0.14158526 0.05654418 0.99153024
-0.10764218 -0.055413667 0.9016166
-0.17936796 0.03265707 0.98761934
-0.16458255 -0.003327481 0.9194384
-0.02946322 -0.046933427 0.83573407
0.009774569 -0.0055021513 0.8145474
-0.07072727 0.024283279 0.9127927
-0.116283506 -0.054605413 0.9086158
-0.12094918 0.05935473 0.9789181
0.04331178 -0.05101575 0.82694364
0.04876446 -0.020516228 0.8329507
0.16785344 -0.030087618 0.81861717
0.01561998 -0.071077205 0.8242488
-0.09438882 -0.078129865 0.8877822
-0.038432 0.061060786 0.9676309
-0.08922466 -0.052715458 0.8867218
-0.021113059 0.0202269 0.92687553
0.14022365 0.023550494 0.9043086
0.0018909811 0.05205094 0.9795177
-0.1311934 0.015270205 0.9189902
-0.20879257 -0.039802298 0.9805794
0.11281912 0.028771872 0.911155
0.06983633 -0.038220417 0.82934177
0.01580686 -0.02491645 0.8199686
0.101505645 0.031426795 0.91368735
-0.1789526 -0.022049107 0.9169611
0.028617613 0.020677505 0.8248933
-0.101751775 -0.038695857 0.8627937
0.0017612141 -0.028057454 0.8165343
-0.15192801 -0.08007348 0.96386665
-0.027196476 0.021698738 0.9315713
-0.14624856 -0.053711627 0.9368417
0.028492283 0.008739272 0.77296597
-0.07477721 0.054180287 0.95811296
-0.21427491 -0.05990793 0.9774315
-0.2036535 0.013165096 0.96756107
-0.07261585 0.03156151 0.94128466
-0.14120719 -0.023974746 0.8924432
0.15656696 -0.05689289 0.8092135
0.051840402 0.046276648 0.87323713
-0.1542626 0.070473306 1.0347177
0.027170822 0.03449101 0.80366635
-0.11112509 -0.076032475 0.91334283
-0.09471855 -0.0326895 0.86192816
-0.16270639 -0.07527338 0.9648344
0.054562308 -0.014285605 0.8310997
0.11447258 -0.021741677 0.84039265
-0.06596185 0.0030916277 0.8970324
-0.089001365 -0.0826187 0.90935713
-0.008507297 0.045801815 0.96413773
0.0993914 -0.016554687 0.8369437
0.13398796 -0.047360644 0.8226131
0.0013156026 -0.03288171 0.8220252
-0.23057899 0.019045457 1.0069053
-0.024067027 -0.07593852 0.86118245
-0.21336511 -0.047599066 0.97698146
-0.06861326 -0.0430942 0.8455728
0.0022187138 0.06219163 1.0094736
-0.08679679 0.06836228 0.9722217
-0.16093887 -0.07804505 0.97058254
0.11249836 -0.004153394 0.86111945
-0.11083531 0.005534691 0.8922471
-0.064198025 -0.036074992 0.8595717
-0.021281084 0.078922786 1.0631609
-0.08243898 -0.014890498 0.87179965
0.14826868 0.013655685 0.91140336
-0.02052835 0.07226379 1.0494603
0.12703502 0.023992822 0.94102806
0.119458064 -0.03125268 0.8327826
0.13722399 -0.030018814 0.82776237
-0.17522293 -0.054174922 0.9620864
0.15705602 0.021775845 0.9279376
-0.1641136 0.010812268 0.93376946
0.117210165 0.043229736 0.93580097
-0.0007283762 -0.062089384 0.828565
-0.10959369 -0.030268742 0.8747543
-0.16816144 0.018715449 0.9504632
0.037434924 -0.068999656 0.827564
-0.09501149 -0.06316307 0.89647186
-0.042317502 0.06840597 1.0007367
0.012499498 -0.06554477 0.83042586
0.0332025 -0.029850606 0.8299771
0.06979127 0.0108646285 0.8526712
-0.00015781587 0.07638679 1.0496224
-0.094911106 0.021386605 0.92190653
-0.12226622 0.06807268 1.0166615
-0.043153383 0.049733087 0.9449659
0.047612693 -0.068322904 0.8298106
0.15233037 0.018827891 0.9267427
-0.0067026615 0.07491573 1.0555892
-0.034600444 0.06686738 0.98841697
-0.20847164 0.03524335 1.0107332
-0.0787789 0.06597226 1.0042391
0.09074017 -0.06434511 0.8253305
-0.23040195 -0.011598351 0.9658027
-0.049075324 0.079066224 1.0367292
-0.055092447 -0.044154506 0.83986825
0.05295381 0.0023064793 0.87164104
0.03885598 -0.04671006 0.8319303
0.06810056 0.0056753666 0.84974504
-0.1666958 -0.02470045 0.90900475
-0.17269523 -0.0641014 0.9689617
-0.10645327 -0.0361504 0.862938
-0.13048357 -0.004262915 0.89627993
0.11862262 0.009176394 0.8834959
0.10980943 -0.056216694 0.8205056
-0.22949816 -0.048827443 0.9844481
-0.0146493 -0.069456294 0.84709203
-0.003361864 0.07843177 1.0418379
-0.08568684 -0.01278751 0.8725689
0.054247815 -0.06939908 0.827251
0.082578525 0.041479893 0.9175458
0.08405946 -0.058116864 0.8237617
-0.2178496 0.021956325 0.9939602
0.16524357 -0.01934592 0.82383585
-0.08028671 -0.017262809 0.8668345
-0.00018975313 0.048312154 0.9683496
-0.122417994 -0.034135364 0.88451195
-0.20561649 -0.06775455 0.9845241
-0.08624369 -0.056536227 0.88258547
-0.14346236 -0.029988967 0.89292026
0.018780485 -0.0012576589 0.7893212
-0.010389574 0.001066882 0.83204436
-0.10829951 -0.061592095 0.9064919
-0.035318773 0.0027341908 0.9033286
0.02004036 -0.05483677 0.82913977
-0.10859009 -0.031853948 0.8751354
0.027997695 0.0035014725 0.77570814
-0.0028710724 -0.0631409 0.8329763
0.11103464 -0.03114813 0.83595693
-0.12764928 -0.027332753 0.8966368
0.13406861 -0.009423744 0.84716517
-0.1461724 0.0036840802 0.91350865
-0.12821317 0.046881393 0.95514387
-0.13875341 0.015024316 0.92764366
-0.17297179 -0.06037999 0.9605662
0.0614641 -0.015886832 0.8360107
-0.12503155 0.07749353 0.9971149
0.16171625 -0.042991605 0.81493247
-0.17408052 -0.07550319 0.97439677
0.016535513 -0.0012694094 0.79727924
0.15546136 -0.012948983 0.8364147
-0.20908567 -0.06542031 0.98781604
-0.16166376 -0.019530702 0.907575
0.020585617 -0.06893912 0.83346975
-0.13737258 0.057744596 0.98493165
-0.123806946 -0.07393066 0.9273695
-0.034955077 0.06594398 0.9984967
-0.19217347 -0.022052461 0.9271157
-0.20396191 0.0027578166 0.96678066
0.045573365 -0.010704415 0.767654
-0.12363087 0.055445418 0.96668744
-0.19349654 0.01764311 0.97076154
-0.12757297 0.03769512 0.94861907
-0.11381908 -0.036227793 0.8814916
0.124171026 0.012082439 0.8773404
-0.21851207 -0.061462 0.987023
-0.17327528 0.0614403 1.0398356
-0.20142126 0.0073415185 0.9610178
-0.13119034 -0.005031204 0.9062914
-0.012283395 -0.041109663 0.8214567
0.042221677 -0.012452289 0.8364671
-0.037806764 0.08553354 1.0879251
-0.219955 -0.046946276 0.98130894
-0.0137696145 0.009396242 0.8256038
-0.011940589 -0.067783795 0.84033614
-0.17675829 0.037993424 0.98648554
0.15290934 0.016807407 0.8898668
-0.2172081 0.0033643232 0.97068506
0.10448907 0.02503328 0.89829546
0.13109443 -0.044416353 0.8133038
-0.22574408 0.010120004 0.99220353
-0.1530204 -0.040285673 0.9184432
-0.23066217 -0.019762466 0.9598972
0.15856442 0.014959199 0.92756516
0.025851894 -0.012340942 0.77577984
0.06991996 0.027124334 0.7393621
-0.22192238 0.025760094 1.0012772
0.14624842 0.02486143 0.9150905
0.1226228 -0.055276033 0.8186542
-0.11783025 -0.017127622 0.8828726
-0.19902766 -0.010835558 0.9423509
-0.03906687 0.085680895 1.0702232
-0.08468338 0.017840482 0.91522324
-0.023923254 -0.048274577 0.8395169
-0.04457648 -0.037370816 0.8387865
-0.21854912 -0.068525806 0.98458564
0.099443056 -0.020457694 0.8463855
-0.01496751 0.048463445 0.9556601
0.042548824 -0.020875772 0.8321145
-0.0015768073 -0.06289358 0.8305383
-0.23108493 -0.008386271 0.9510824
0.05907565 0.043072075 0.8832147
-0.04206633 -0.0007604379 0.8938602
-0.1854254 -0.07734685 0.9841491
-0.05644853 0.0114028 0.9096027
-0.09119505 0.022259453 0.90767336
0.12905265 -0.05870107 0.8205272
0.16101852 -0.041056402 0.81072265
-0.085865445 -0.0567341 0.88291633
-0.14774477 -0.07222492 0.9415505
0.14954837 -0.013150872 0.8412102
-0.09660676 -0.024183832 0.86644083
-0.029978702 0.044618502 0.9534891
0.16185503 -0.017142605 0.8255377
0.022602843 -0.055347495 0.8251126
0.12983094 0.011877671 0.8858381
-0.044239048 0.05007703 0.9611713
-0.11026105 -0.07497607 0.9122391
0.051201206 -0.045874126 0.8269789
0.031963814 0.01454432 0.8240928
-0.09474091 -0.073326424 0.9000384
-0.015317392 -0.002447145 0.8190328
-0.18755206 0.035564903 0.9977878
0.02094996 -0.0032268863 0.78618705
-0.026372936 0.010785115 0.90860397
-0.14283824 0.07058934 1.0397023
0.09518944 0.0281686 0.898999
0.063782826 -0.041722547 0.82952875
0.14598523 0.02466736 0.9196836
0.05048696 -0.009960235 0.76446414
-0.22752276 -0.030995933 0.9552963
-0.23104216 -0.03134358 0.95694274
-0.09473237 -0.033184223 0.8647683
-0.100817636 0.05902592 0.9733271
-0.00067179697 -0.07619944 0.841919
-0.09946376 -0.029622199 0.86706156
-0.025161704 -0.014676939 0.84126294
0.15392365 -0.03764343 0.8158186
0.1245246 -0.037420016 0.8263242
-0.17029537 -0.05408548 0.94737065
-0.029191555 0.04745231 0.9520653
-0.18129227 0.05757162 1.0390038
0.072451554 0.048167765 0.94383365
0.13286069 0.03457821 0.9253667
-0.22363628 -0.004449146 0.97182715
0.090559885 0.025285963 0.9077674
-0.06631975 0.049594328 0.96505904
-0.1975953 -0.0051348926 0.9414123
-0.06134688 -0.020520704 0.8577452
0.02835948 -0.057005093 0.8285069
-0.023101889 -0.048625592 0.8314213
0.078529224 0.031483456 0.74229723
-0.2060652 -0.058146812 0.9786133
-0.1880003 0.04840827 1.0116827
-0.14116105 -0.07038048 0.9348935
-0.043835025 -0.05885247 0.85812294
-0.04852453 0.039802764 0.9441007
-0.07159975 0.07930255 1.0320156
-0.12700325 0.04561734 0.9552881
0.016236924 -0.0025283685 0.83924574
-0.12782979 -0.06615318 0.93047976
-0.09807414 -0.0652079 0.89605755
-0.05788394 0.0830059 1.0347847
0.15765175 0.0077277618 0.8875731
-0.0018420717 0.02217475 0.8159733
-0.044670153 0.064607665 1.000895
0.15065373 -0.003714113 0.851939
0.08088572 -0.0077407253 0.84866416
0.10046612 -0.045465257 0.82367224
0.12887813 0.03161822 0.9230319
0.045396995 -0.052705362 0.82817644
0.16819127 -0.054838873 0.80500114
-0.0454126 -0.058255516 0.85766804
0.11784009 -0.04066133 0.8235521
-0.0034723952 0.069904216 1.043492
-0.15980385 -0.014998878 0.9115454
-0.0077260043 -0.05056018 0.8258124
-0.014439743 -0.053940263 0.8289795
0.022405282 -0.004013441 0.838152
-0.19700886 0.029725464 0.98840934
0.09706931 0.021756575 0.8931958
0.01929511 -0.02497779 0.82344496
0.052978087 -0.0040082065 0.84465224
-0.04469772 0.0023736497 0.8995614
0.04466208 0.031957876 0.8634003
-0.13509029 0.01856537 0.9233575
0.14877447 0.023121221 0.93052924
-0.05012295 -0.06541161 0.86462295
0.15725069 -0.030247523 0.80626297
-0.1980071 -0.019970434 0.93539995
-0.010277921 0.06929989 1.0193722
0.112737 -0.05309558 0.8268065
0.036062203 -0.04980218 0.8258779
-0.073800966 -0.017419718 0.8624792
0.027302817 -0.067953385 0.8279957
0.010004023 -0.046665248 0.8231315
0.12539354 0.046920925 0.9414148
0.09538221 -0.06329856 0.81803185
-0.14205836 0.0482923 0.97332746
-0.03218414 0.038481943 0.9427834
-0.14539282 -0.06420204 0.9394057
-0.011982532 -0.080764145 0.86045945
0.03144688 0.0029926654 0.7732534
0.13506678 -0.0012696112 0.86437064
-0.0813786 -0.042905975 0.8542957
0.09623052 0.014793449 0.8901589
-0.16468887 -0.071778156 0.9599648
0.02873478 -0.027115997 0.8223096
-0.06838045 -0.027944753 0.8494611
-0.11499501 -0.0052460283 0.888339
-0.07359786 -0.020817047 0.8567963
-0.17009318 0.068356164 1.0030168
-0.1347838 0.04555308 0.95580065
0.094224535 -0.03630057 0.8281887
0.15349273 0.03638519 0.91629046
0.14272408 -0.05029192 0.81458735
-0.08985258 -0.06830398 0.8931823
0.11692499 0.033594765 0.91997457
0.104911365 -0.0048480514 0.8498449
-0.17380404 -0.018321099 0.9124528
-0.14752059 -0.029994916 0.89692366
-0.20526019 0.02650029 0.9972463
0.14821583 -0.04333842 0.81572145
-0.09697469 -0.071346134 0.8939251
-0.05930532 -0.024185589 0.85616934
-0.02881973 0.08264723 1.064504
-0.09295012 -0.052907433 0.8946848
-0.1277146 0.014485121 0.9227111
0.11909214 -0.0015767496 0.86185116
0.07350669 -0.065261126 0.8247365
-0.08175025 -0.037479546 0.86538416
0.07439367 -0.00068582455 0.84135944
-0.12855285 0.048223037 0.9635969
-0.03803395 0.04154466 0.9347024
0.11056147 0.02824675 0.92438734
-0.037122633 -0.046697732 0.8330122
-0.19359301 -0.051760416 0.9627735
-0.13451163 -0.07509852 0.93155175
-0.14303902 -0.01409417 0.88875294
-0.13966313 0.0037263522 0.8863295
-0.22583693 0.004618829 0.98825026
-0.010132283 -0.0065384144 0.8413996
0.07979954 0.047356594 0.947787
-0.080232754 0.07522334 1.0090845
0.07287736 -0.057092603 0.8261254
-0.045709006 -0.045237094 0.8479637
-0.0690958 -0.016873375 0.86853474
-0.086038806 -0.010774238 0.8725059
0.08837931 0.034988087 0.9113108
0.0376571 -0.05048193 0.8262972
-0.020273488 -0.014509828 0.8419119
0.06399535 0.01447184 0.7545071
-0.07491429 5.6872144e-05 0.8831784
-0.147844 0.028674364 0.9416369
-0.14437896 0.043807622 0.9649055
-0.16235662 0.04048049 0.9666042
-0.06835751 0.07772618 1.011425
-0.023827868 -0.029621245 0.8148965
-0.103781365 0.033619456 0.9359362
0.014294231 -0.07415433 0.83209354
-0.07279279 0.059958998 0.96918136
-0.0899917 -0.049036156 0.8840319
-0.110006586 -0.037860077 0.8719562
-0.1354192 0.030794607 0.938944
0.029751517 -0.047399487 0.8241356
-0.06649428 -0.076747164 0.87288046
-0.060267903 0.005074653 0.8915131
-0.13462494 0.04512178 0.9612499
0.025730299 0.029245174 0.79272527
-0.21671565 -0.060607083 0.9871576
0.047725722 0.009894331 0.7614506
-0.08298155 0.033439077 0.9330731
-0.06887078 0.0070904554 0.8980119
-0.06695886 -0.022140846 0.8516289
0.018052982 -0.03850907 0.82942116
0.03215401 -0.05978198 0.8239848
-0.18662706 0.009123218 0.95003486
-0.20645273 -0.056007784 0.9759864
-0.13960893 -0.010384437 0.9031654
-0.19428188 -0.0032316467 0.9395567
-0.060453124 0.09131115 1.0850211
0.070424706 0.020527206 0.7533493
-0.0551331 -0.028611038 0.8479283
-0.053887513 -0.07481023 0.8623172
0.0145210335 -0.02564823 0.8245879
-0.22715755 -0.025033522 0.95095783
0.11638817 0.01662305 0.8948602
-0.14297526 -0.07387025 0.9441945
0.11500159 -0.051865127 0.82291317
-0.026694559 -0.04715371 0.83496815
0.07599281 -0.03790907 0.8294629
-0.08260295 -0.061033748 0.8860967
-0.041496124 -0.07080093 0.86181414
-0.005972253 0.062042627 1.0025058
0.1603108 -0.05020002 0.807548
-0.16087407 -0.023920868 0.9016535
0.011888912 0.0035370444 0.8060819
-0.1558486 -0.026470734 0.8992971
-0.120849624 -0.08116174 0.93046045
0.06938401 0.02925928 0.7507
0.16498439 -0.008104997 0.8346463
-0.10581434 0.05070012 0.95557535
0.14386792 -0.030995687 0.82295465
-0.17162566 0.0076358067 0.93609756
-0.028831422 -0.0019109622 0.8981843
-0.04384498 0.032391135 0.93041635
0.08212561 -0.05436173 0.82447416
-0.1446579 0.021320475 0.92547905
-0.18874602 -0.009014237 0.9401446
0.015520463 -0.009795806 0.7889648
-0.020282444 -0.028626466 0.83813286
-0.17110685 -0.027573101 0.92720425
0.058981508 0.020723194 0.76101166
-0.05152366 0.05026443 0.94325006
-0.22990772 -0.034174778 0.9694373
-0.13075282 0.072408125 0.9936796
-0.006565515 -0.030446481 0.8325835
-0.14160375 0.03557245 0.95155245
0.009043145 0.0060098083 0.79548
-0.028917063 -0.029794151 0.8377179
0.13002606 0.019248469 0.9002885
-0.006685738 0.011797305 0.8323276
-0.04188216 -0.049613927 0.8365923
-0.06786107 0.03624294 0.9266045
-0.16796248 0.016307376 0.9468608
-0.20454496 -0.04085329 0.9715759
-0.03335629 0.0050640465 0.90860707
-0.21055004 0.039451998 1.0219821
-0.12920544 -0.006665774 0.91054416
-0.1420337 -0.0329227 0.8926392
0.002810989 -0.07275677 0.84479886
-0.23094356 -0.040165413 0.97782856
0.039794646 -0.015054029 0.8150877
0.04327018 -0.0044520064 0.76211923
0.11841653 -0.022918291 0.82997197
-0.13098368 -0.02946263 0.87188953
-0.13928783 -0.03941956 0.9263463
-0.037848003 0.067886785 0.9873631
-0.02192308 -0.02498999 0.83601004
0.09094686 -0.01967334 0.8323058
-0.006353421 -0.024256159 0.82362926
-0.008795399 0.065205656 0.99129426
-0.048261955 0.040090825 0.93423164
-0.04637234 0.02195923 0.9257254
-0.23008773 0.016566675 1.0058588
0.14536673 -0.04846602 0.8180151
0.09523028 -0.009601313 0.8455696
0.11561551 -0.02033023 0.8429511
-0.15141056 0.051080775 0.9742955
0.13976964 -0.06634044 0.8130099
-0.16756733 0.05842805 1.0017339
-0.03893912 0.0124625135 0.9111434
0.037341364 -0.03958084 0.8296314
-0.0882031 0.041299213 0.9421378
-0.050448332 -0.005481514 0.87057555
-0.026219409 0.056168243 0.9631784
0.013364813 -0.03933516 0.82042897
-0.13958271 -0.01638842 0.89527303
-0.2140117 -0.042452276 0.97006893
-0.14993674 0.005842083 0.913497
0.09848463 0.041872814 0.9232734
-0.19452333 0.04921801 1.0290616
0.07037631 0.028931437 0.75442886
-0.113779426 0.03162315 0.9385325
0.062620014 -0.034515034 0.82995975
0.040256232 -0.054237824 0.8281184
-0.06150205 -0.042683743 0.85377926
-0.11546829 0.033526536 0.9341013
0.11514502 0.0042082006 0.8707879
-0.064260855 0.005557382 0.8991826
0.011760902 -0.054512545 0.8243253
-0.022235032 -0.006565437 0.8324465
0.03586935 0.032810584 0.8053176
-0.09042452 0.045678694 0.94844735
0.0976408 0.014089104 0.88094956
0.114253014 -0.0037690017 0.8591543
0.16682124 0.026040263 0.927164
0.08617337 -0.031604577 0.8305333
-0.031232914 0.0067270794 0.9098616
-0.1797319 0.029847346 0.96793914
-0.05342257 0.047954094 0.9534
-0.09061835 0.030645682 0.9240556
0.017844733 -0.007065363 0.796437
0.0091156475 0.014484654 0.7984458
0.05994122 0.03413194 0.8781948
0.049008884 -0.0010519497 0.75991124
0.16483343 -0.056318123 0.81046826
-0.11533386 -0.066854835 0.9132415
0.058207385 -0.021948313 0.8326936
-0.01416642 -0.05471671 0.8322694
0.045905363 0.0521114 0.80821073
0.023769157 0.021188322 0.78863543
-0.1845278 -0.018007472 0.9272519
0.11228175 0.032157652 0.9331521
0.052933607 0.04127867 0.9335145
0.01308873 -0.047867298 0.81871915
-0.09849243 0.005831835 0.89981306
0.046580583 -0.027937066 0.831351
-0.18294248 0.015796697 0.9578936
0.007982692 0.06959022 1.0323702
0.031743716 0.017839797 0.78810716
-0.033830192 -0.0470124 0.83851385
-0.21826927 -0.036095574 0.97338474
-0.20605646 0.015686033 0.9918891
-0.16204295 0.015947143 0.945822
0.11346087 0.014716452 0.8835154
-0.013835053 0.02934199 0.9361057
-0.056318562 -0.030268677 0.84345454
-0.12632625 -0.0031814266 0.90627265
-0.11900908 0.0004598787 0.9121465
0.029447993 0.03448943 0.8091743
-0.06877587 0.035307236 0.93273777
-0.029911604 -0.026012726 0.8473804
-0.22475107 -0.003987027 0.97341853
-0.21994624 -0.012499608 0.9494279
0.06701125 0.02892032 0.7441667
0.02023547 -0.012599423 0.7869131
0.06431484 -0.06545807 0.8249373
-0.013539338 -0.014240082 0.8226738
-0.13822325 -0.029777978 0.88609904
-0.0996859 -0.073213615 0.9152974
-0.024323964 0.012050161 0.9235718
-0.11556682 -0.06995323 0.9074734
-0.21969397 0.01089932 0.99043
-0.077988945 -0.07279963 0.8893928
-0.20877992 -0.04849821 0.9725361
-0.2136678 -0.019736774 0.942282
0.041317694 -0.01876948 0.8273152
-0.0030089356 -0.06359782 0.8309954
0.14104632 0.015330659 0.90304875
-0.06707055 -0.06393146 0.8746608
0.040347405 -0.03529833 0.83020586
0.027444545 0.013545672 0.77088064
-0.21178651 -0.07695488 0.9886762
-0.011625966 -0.034651782 0.826935
-0.19793439 -0.0707917 0.9841724
-0.011533519 -0.025099812 0.8244963
-0.06409885 0.05602934 0.9674314
0.1617049 -0.052492157 0.81016386
-0.0790335 0.089857 1.0869832
-0.10095992 0.04899207 0.953348
0.08110939 -0.042604845 0.8263967
0.07142662 -0.063928835 0.8301786
-0.14747146 -0.07179079 0.94934374
0.06321576 0.0147228865 0.74974453
-0.033264402 -0.05250703 0.837366
0.056639332 0.0051480564 0.75825745
-0.224802 0.0242843 0.9965199
0.08723339 -0.015026722 0.8344115
0.14918175 -0.059251063 0.8132768
-0.15364859 0.047684632 0.9474438
-0.17775324 0.050489355 1.0126233
0.037752777 -0.030547235 0.8251436
0.060891185 0.024829714 0.88011205
0.010893014 -0.06825881 0.83730334
-0.03671946 -0.056365892 0.84258723
-0.096482724 -0.019290134 0.86858803
-0.08602383 -0.06791809 0.8965682
-0.037249744 0.075245485 1.0339155
-0.22738753 -0.022740403 0.9482611
0.003667122 -0.055618133 0.8333349
0.11087657 0.048202034 0.92269623
-0.21329479 -0.06404352 0.975486
0.07648657 -0.042877648 0.82589006
0.04641834 0.051244915 0.8145669
-0.21408041 -0.023318391 0.9428358
-0.14756022 0.030374454 0.94605243
-0.15712291 -0.00846116 0.9159851
0.06577612 0.018283367 0.7464021
-0.03315107 -0.034941494 0.8354531
-0.15225151 0.01853163 0.9342855
0.09121874 0.023915645 0.9100538
-0.016079541 0.018014994 0.91858256
-0.16761613 -0.05643305 0.95506734
-0.13793586 0.0029894183 0.91524047
-0.23214777 -0.05487013 0.9829185
-0.095866054 -0.07202247 0.8978408
0.16865206 -0.031756487 0.8181708
-0.07233016 0.026455302 0.92291087
-0.08425886 -0.022792535 0.8580079
0.0689641 -0.029148635 0.833843
-0.20558514 -0.0009660764 0.9568466
-0.07586223 -0.07865034 0.88919115
-0.041959055 -0.028790751 0.8384971
0.020163577 -0.0525437 0.8276967
-0.08257805 -0.06831629 0.88940823
-0.16891763 -0.025701972 0.9162722
0.105762206 -0.013780977 0.85102004
-0.044860683 0.070059255 1.0194758
-0.13309793 0.014710669 0.9258088
0.11721038 -0.05623862 0.82104754
0.13659695 -0.02554394 0.82966787
-0.1233533 0.06355877 0.98483545
-0.018254314 -0.008495661 0.8380381
0.10462593 -0.047416694 0.82505417
-0.071738616 0.051344197 0.9490765
-0.17925745 0.032198206 0.98249334
0.16813852 -0.040662806 0.81235486
-0.05804661 -0.034430273 0.84204054
-0.20087971 -0.04832221 0.96486807
-0.019624576 -0.03621337 0.8352288
0.064284585 0.028667446 0.7494881
0.05926293 0.018830044 0.7517396
0.070849776 0.03269827 0.74982756
-0.043310024 -0.060182523 0.85234594
-0.13225894 0.047814094 0.95654315
-0.12925352 0.0030610864 0.9085204
0.036720898 0.032963373 0.81355697
-0.17545435 0.016685931 0.9576072
0.03066067 0.026776422 0.7867825
-0.08189134 -0.013862226 0.8618057
0.007948259 -0.026328573 0.82583845
-0.18008208 -0.05677819 0.9621777
-0.15978439 0.026422122 0.9453684
0.047348633 -0.0016613263 0.76029533
0.13636264 -0.06418902 0.81681085
-0.056343086 -0.055319436 0.8630171
-0.11701445 -0.0013729902 0.89619124
-0.11810736 0.0760447 1.0189245
-0.1933437 -5.349703e-05 0.95341474
-0.10236734 -0.036661156 0.87130094
-0.17486694 -0.05037816 0.95884025
0.019240256 -0.032965716 0.8251898
0.028711244 -0.040470295 0.8238663
-0.018430155 -0.050446097 0.8306717
0.040870134 -0.00067880936 0.76759386
0.16414419 0.023405438 0.9214878
0.13689128 -0.0572657 0.81770015
0.044025138 0.015371227 0.76029897
-0.094383 -0.08239251 0.9096529
-0.13285707 -0.05411559 0.9192439
-0.1683699 -0.071340516 0.96381414
0.08333346 -0.06537774 0.82764524
-0.051426508 0.016656576 0.9172308
-0.12072089 -0.031067139 0.87685126
-0.0055797533 0.07242403 1.0271785
0.018528698 -0.060093988 0.8260411
-0.16375174 -0.049670517 0.9492377
-0.14539742 0.019631093 0.9269383
-0.08333898 -0.025368938 0.8570947
-0.045591407 -0.06452565 0.8645748
0.05736436 0.03558579 0.90953773
-0.014920443 -0.048257712 0.83093923
-0.18283369 -0.044204626 0.9507608
0.016373504 -0.008035584 0.8375744
-0.057047695 0.073853 1.0269227
-0.18959297 0.054755025 1.0462787
-0.10759399 0.050768845 0.96831566
0.045726076 0.046526995 0.81181216
0.119932085 -0.058122527 0.81948966
-0.20484492 0.04476097 1.0244524
-0.06342014 -0.0070561827 0.8893563
-0.20768821 -0.03459035 0.9628207
0.018977998 -0.056227487 0.82372665
-0.081470005 0.06283771 0.9632518
-0.030454256 -0.069377765 0.8462593
-0.04056597 0.07471121 1.017015
0.054447893 -0.044005275 0.8269278
-0.16392276 -0.06038719 0.9522419
0.12674868 -0.005063709 0.84652245
-0.22393659 -0.028769063 0.94571793
-0.011256479 -0.075423494 0.85001093
-0.088254906 -0.06222068 0.89688253
-0.115069084 -0.06868536 0.90764624
-0.21293172 -0.076819554 0.97995585
-0.0034427687 -0.0056904256 0.8126119
-0.106706224 0.0732711 1.0114424
-0.13469848 -0.058075286 0.9239818
-0.097293444 0.027417997 0.92640173
0.14319484 -0.067383796 0.81513995
-0.012202073 -0.04254108 0.82967895
-0.035011806 -0.0329956 0.8359715
0.12622353 -0.04076625 0.8127997
-0.100023255 0.004692424 0.8985926
0.04385587 -0.024310889 0.8289999
-0.10654603 -0.04372431 0.89402246
0.0013622013 0.07562034 1.0682797
-0.04595004 0.013275016 0.91523105
0.01623675 0.0003316435 0.78900176
-0.1594906 -0.009694671 0.9123226
-0.034553934 0.013311571 0.914016
-0.048650227 0.01688852 0.90669733
0.16214585 -0.056183405 0.8102352
0.107307814 -0.011671819 0.8503917
-0.20921601 0.025161682 0.9901079
-0.072771184 -0.026931573 0.8526693
0.0959051 -0.03343515 0.8257916
0.0074160094 -0.018222995 0.80794036
0.10057401 -0.05790707 0.8215281
-0.19695757 0.030520266 1.0024352
-0.06340127 0.084176704 1.0188284
0.003244561 -0.06949004 0.84359354
-0.061131157 0.06834029 0.9828362
-0.15003042 -0.0749905 0.9443835
-0.16961041 -0.023659965 0.9128975
0.060321927 -0.07040305 0.82967883
0.065193966 0.014533574 0.7446499
0.077192605 -0.06035602 0.82689387
0.05853218 -0.02040109 0.83872706
-0.006388856 -0.0007799886 0.83795595
0.13304256 -0.061057933 0.81765705
0.06121746 -0.008085098 0.8371568
-0.19298895 0.04197226 1.0102357
-0.052955 -0.0730338 0.8584768
0.0030592522 -0.06789944 0.82556325
-0.1476853 0.06647014 1.0263796
0.15608014 -0.035270955 0.8143371
0.042443786 0.026214594 0.7846655
-0.2198302 -0.019028326 0.9412104
-0.009504603 -0.06266315 0.84294367
0.12599395 -0.059314873 0.82111406
-0.04689798 0.0132567715 0.91456985
-0.19185717 -0.022406278 0.92681676
0.02338506 0.041465696 0.9115883
-0.17889889 -0.06277579 0.9671924
-0.21601331 -0.06596267 0.9859555
-0.029205691 -0.051282693 0.83769464
-0.13542823 -0.011595624 0.90108985
0.16330059 -0.06215442 0.8089413
-0.017212467 -0.07255449 0.8551428
0.0743375 0.027754126 0.7404201
-0.068053596 -0.0182884 0.8598887
0.009919612 -0.059148096 0.82797444
-0.038269438 -0.029005034 0.85610706
-0.04152372 0.010075388 0.9113787
-0.122131795 -0.03747607 0.844315
0.080474876 -0.04613354 0.8264894
-0.17621845 -0.057405576 0.9613836
0.096149966 0.0071110544 0.8687159
-0.056246553 0.008508336 0.9021858
-0.16596793 -0.026744768 0.9110383
0.0986028 -0.02666768 0.8314056
-0.14343709 -0.061542973 0.93088394
0.09110551 -0.046751194 0.826967
-0.09545029 -0.00978253 0.87491435
-0.14993922 -0.060504504 0.9463331
-0.11863459 -0.04376239 0.9076237
-0.19359805 -0.07251122 0.97116613
-0.14455953 -0.023009758 0.89513165
-0.0560075 0.0059272777 0.9049507
-0.003987755 -0.07779966 0.8472679
-0.041808084 0.0019027968 0.9047652
-0.047413487 -0.065084554 0.8675763
0.0037641828 -0.030300941 0.82389456
-0.17332934 -0.02981954 0.9147908
0.0072998554 -0.078648224 0.8371266
-0.05056765 -0.033979364 0.84060013
0.013022875 -0.017679408 0.80424166
-0.18626529 0.040298045 0.995788
-0.050689418 -0.04455298 0.8392269
0.09346426 -0.064713515 0.8234587
-0.146977 0.01991365 0.9324193
0.03730771 -0.055898845 0.82492083
-0.1597924 -0.02981156 0.9052308
0.034919865 -0.067549415 0.8247001
0.004096523 0.058996502 0.9755097
-0.008074935 -0.022801958 0.82628524
0.07054457 -0.008055392 0.8430007
0.14480299 -0.04312263 0.8189025
-0.090092584 -0.059896946 0.8917498
-0.0075874706 -0.044179488 0.8277794
0.09255401 -0.064803526 0.8258142
-0.020149466 -0.04835829 0.83328813
-0.069561325 0.02202717 0.93009907
-0.05521781 0.05176659 0.9590019
-0.17733197 0.055577092 1.023534
0.13250482 0.027871894 0.9212699
-0.17780071 0.033386406 0.9638903
0.1454024 0.0135512585 0.89168227
-0.23097667 -0.039171856 0.98019177
-0.027882278 0.008639419 0.9094468
-0.09687889 -0.021405429 0.8625991
-0.21377577 -0.0030123552 0.9578514
0.042354368 0.02636894 0.78195906
-0.13194753 -0.07127838 0.9334487
0.11772672 -0.03086131 0.8317517
-0.2111143 -0.00021085283 0.9605549
-0.107651584 -0.021145668 0.86640906
-0.06969751 0.040833257 0.9466821
-0.19459581 -0.060868587 0.972468
0.0025284989 -0.043575004 0.82759917
-0.079009295 0.009654835 0.90867925
-0.046786312 0.018381875 0.9076786
0.1613755 -0.03309722 0.82048297
-0.14966902 0.08872913 1.0383524
-0.16746266 -0.028906323 0.9122305
0.12960014 -0.025214367 0.829021
-0.052073754 0.07530962 1.0188127
0.060340237 -0.00025987334 0.84809446
0.052865323 0.007419521 0.842304
-0.013207786 -0.029904073 0.82735455
-0.1929737 -0.079377815 0.9821116
-0.03835263 -0.06937228 0.8548145
-0.06771267 -0.017467737 0.86129385
0.05747288 -0.048975173 0.8298352
-0.07108588 -0.007565897 0.8801663
-0.12371417 0.072183274 0.9988041
-0.17115496 -0.07735105 0.97899127
-0.03505301 0.0608167 0.98482704
-0.21827412 0.022167586 0.99295026
-0.070302255 -0.035926566 0.8561092
-0.19404885 -0.065912865 0.97913426
0.115520366 0.012431975 0.8974014
0.01572777 -0.050059706 0.8238334
-0.08966659 0.03238441 0.9273534
0.012992887 -0.06442621 0.8232593
-0.06907601 -0.046040438 0.8597874
-0.20413677 0.010220986 0.972225
0.13363327 -0.056965295 0.8177708
-0.047608472 -0.060843773 0.8474214
-0.13922003 -0.07149358 0.94205046
-0.1889745 -0.023763899 0.92406124
-0.01640325 0.0010460592 0.83743244
-0.10514799 0.043395247 0.9443962
-0.09464248 -0.015503765 0.8734429
0.07456516 0.005883966 0.8654369
-0.02701981 0.054581966 0.9657101
-0.009783144 0.0417417 0.9560223
0.07569991 -0.016481446 0.8350511
0.017276281 -0.0009971922 0.782358
0.026462091 -0.06984302 0.8319894
-0.10957032 -0.04230184 0.89562887
-0.15106578 0.0042999643 0.9247903
-0.17898238 -0.014080433 0.92139924
-0.109358035 0.024855884 0.9271017
0.089378655 -0.049645096 0.8253066
0.11192088 0.02066441 0.8970503
0.05469594 -0.038684495 0.8287401
0.06487894 0.041547455 0.8263928
0.16465798 -0.01861214 0.8327957
0.03570009 0.00782226 0.77835375
-0.02303059 0.028591663 0.93393636
-0.064943574 0.05531347 0.9562067
0.010545729 -0.0041058506 0.848295
-0.1335712 -0.054043792 0.9293924
-0.023635285 0.030488096 0.9353938
0.010809109 -0.0639735 0.82111096
0.025198963 0.057339262 1.0031807
0.063015744 -0.06584691 0.8259318
-0.14720911 -0.0036241263 0.8910007
0.044077896 0.013255882 0.7656136
0.13259283 -0.02218428 0.83233637
0.043302007 0.006029536 0.76327926
-0.19266592 -0.053066745 0.9691287
0.04702947 0.007923565 0.7641764
0.130746 0.021380238 0.90525883
-0.043545134 -0.031503566 0.84584683
0.019965935 -0.012772809 0.8122403
-0.14845571 -0.024899546 0.89694107
-0.12364804 0.042970378 0.9448581
-0.12386779 -0.004628415 0.9040864
-0.009695135 0.057078835 0.98212594
-0.1784709 0.011227517 0.9344216
-0.13100763 -0.0028819577 0.90339714
0.12878947 -0.0060854526 0.85266995
-0.1528948 -0.05917983 0.9509313
-0.106141746 0.026171602 0.9167291
0.108303696 -0.025449103 0.83175445
-0.16718051 -0.004084843 0.9194298
-0.10208183 -0.0420476 0.8801907
-0.1657811 -0.019564917 0.9076662
-0.17945622 -0.015883757 0.915334
0.14087784 -0.054730434 0.81455606
-0.16428888 0.033611834 0.95407933
0.072867796 0.028388312 0.7505427
-0.12652786 0.07892084 1.04236
-0.14535107 0.024850296 0.9415568
-0.21279274 -0.011542961 0.9414438
-0.096572846 -0.019658558 0.8803176
-0.05724906 -0.05467072 0.86914015
0.0815654 -0.039330944 0.82661396
0.14164135 -0.009252435 0.8495413
-0.09664753 -0.057335794 0.890599
-0.10960831 -0.033114262 0.87669045
-0.22411124 -0.04469626 0.9767527
0.11927627 0.006486861 0.875098
-0.09748133 -0.048240125 0.88657963
0.0075402874 -0.067746684 0.83817065
-0.120907485 0.00810197 0.9058308
0.056795392 0.013456075 0.7574666
-0.12989855 0.013965525 0.9211364
0.10592956 -0.05698373 0.81808466
-0.22634585 0.0026554628 0.9780492
-0.17036524 0.0065837316 0.9397578
0.1640616 -0.02107922 0.8166348
0.13418832 0.023704138 0.91670614
-0.050123826 0.023392625 0.9247042
-0.0038566894 -0.041697938 0.82496965
0.072571166 0.0091473125 0.8567415
-0.024611974 0.0349646 0.93092453
0.058727186 0.0031030327 0.74505234
-0.008433841 -0.044523116 0.8274429
-0.07815865 -0.036039628 0.85799843
0.12698874 -0.05680597 0.8200821
-0.05927545 -0.027315613 0.84495276
0.07276109 0.02341003 0.743843
0.025728526 -0.026496798 0.8265275
0.090599544 -0.012275413 0.84022915
0.15767604 -0.013492879 0.84217274
0.12551416 -0.033446513 0.8290277
0.15929031 -0.027910825 0.81742984
0.045653462 0.01996785 0.77169544
-0.15555836 -0.0128198955 0.9081309
-0.07337982 0.055533778 0.966109
-0.02799935 0.049767382 0.94926065
-0.16123897 0.01234386 0.9402965
-0.07616849 0.007643559 0.89787585
-0.0582111 0.021426637 0.92068964
-0.16377436 -0.019432485 0.90440124
0.07820717 -0.06926784 0.8248951
-0.1014928 -0.019205438 0.8771355
-0.045345683 -0.008628363 0.8793813
-0.019621518 -0.073421754 0.8581991
-0.12144155 0.015583682 0.91043574
-0.022857144 0.016165482 0.92363095
-0.10064221 0.0359808 0.93282974
0.07621275 -0.02772008 0.8314245
0.04691505 0.05545063 0.80803806
-0.21893492 0.023879047 1.0003211
-0.012907597 0.07276213 1.033713
-0.07804925 0.057801753 0.9654196
0.1377393 -0.05024253 0.8182008
-0.22157867 -0.045783956 0.9770139
-0.21704541 -0.007968818 0.95054877
-0.059584953 0.035819657 0.94381064
0.16903676 -0.050031964 0.8108341
0.024750996 0.009295549 0.779404
-0.21027502 -0.06702771 0.98023444
0.04389904 0.038990133 0.78443015
0.1359751 0.0023811674 0.8613765
-0.07130323 -0.06877359 0.8825712
-0.06062773 0.0062440773 0.9007588
-0.15223244 0.025448173 0.9440023
0.056499552 0.008944168 0.7526525
-0.04285889 -0.051132325 0.85297924
0.10977673 0.005988359 0.88553506
-0.022349045 -0.017562326 0.83407986
-0.16965607 0.044516366 0.993801
-0.056072984 -0.028286923 0.8482625
0.019216806 -0.070840515 0.8316234
-0.04484828 0.043799568 0.94124055
0.15325621 0.04098775 0.9138256
-0.108078815 0.004476772 0.9050909
0.059707243 0.0008319941 0.7499188
0.050030887 -0.0064418036 0.8393999
0.11455753 0.025354087 0.9120702
-0.022225134 -0.021626908 0.84682196
-0.053958 0.05187176 0.95018727
0.14956293 0.007753665 0.90250283
-0.16034125 -0.046231035 0.93696266
-0.15419906 -0.030100396 0.8985638
0.02205041 0.03255576 0.80424356
-0.19090724 -0.048027974 0.96720445
0.044887852 -0.013776749 0.760469
0.16224335 0.017826047 0.9319593
-0.20258781 -0.06155462 0.98126304
-0.053505857 -0.050386265 0.8627056
0.1428649 -0.06531858 0.81753695
0.03226468 -0.0044054827 0.83867455
-0.09645265 0.007524356 0.9026813
-0.11533566 -0.06067794 0.90476066
-0.07647441 0.012299309 0.9120406
-0.0024456247 -0.03629039 0.82294255
-0.12370402 0.07085078 1.0222161
0.024977468 -0.00478962 0.840668
0.12268078 0.033004135 0.917471
-0.054990906 -0.00865476 0.8848066
0.070572875 -0.012525745 0.83646125
-0.018754443 0.035747588 0.93227804
0.10072709 -0.009390824 0.85178536
0.0069698608 -0.0077838576 0.8100027
0.11753959 -0.0037696678 0.8612223
0.09193153 -0.058560073 0.82300967
0.13917153 -0.05115791 0.8190667
-0.020552574 -0.008558258 0.84875154
-0.21823783 0.03476569 1.01834
0.028216926 0.03272735 0.79803115
-0.16286406 -0.027882893 0.91203916
-0.006534535 0.059374854 0.9938412
-0.12201842 0.032472037 0.9356225
0.09668925 0.014684113 0.8852661
0.14161521 -0.027743308 0.8229349
0.12217744 -0.06188802 0.81952405
0.13836691 0.025439244 0.922561
-0.07863635 -0.06978504 0.87917393
0.17537993 0.019349698 0.9192031
0.13977286 0.002774359 0.8688818
-0.21566671 -0.04187094 0.9756794
0.093287624 -0.016300542 0.8424623
-0.02327879 0.053076632 0.9820219
-0.2104099 -0.009102147 0.95512277
0.060610864 0.02973249 0.8583162
0.05351455 0.018641703 0.7542429
0.07740467 -0.06618065 0.82518864
-0.01912852 -0.0019208179 0.8296829
0.007133704 -0.061492242 0.82343227
-0.029301764 0.012542683 0.91705734
-0.12047009 0.0047647674 0.90459824
-0.120588996 0.01986242 0.92762345
0.04569439 -0.042468257 0.8282677
-0.012878594 -0.0047794525 0.82103807
-0.2227655 -0.048058473 0.9747079
-0.015350999 -0.07469373 0.8549794
-0.08215307 0.05522134 0.9539739
0.031699818 -0.018266983 0.7618108
0.15858313 -0.011801647 0.8319759
-0.06143742 0.06891772 0.9798619
-0.1381769 0.023333106 0.9272348
-0.21155941 -0.042517304 0.98318845
-0.04647709 -0.032986313 0.8456983
0.041002445 -0.035878256 0.8292664
-0.08565883 -0.047849692 0.8779065
-0.10576998 -0.054266095 0.89132905
-0.016314786 -0.070031606 0.8493354
0.055758044 -0.0011696881 0.839427
-0.1349826 -0.053869028 0.920399
-0.13663055 0.056589484 0.97850335
0.076771386 0.029402604 0.7383131
0.110236794 -0.0017434857 0.86230963
-0.073091425 0.032057725 0.9251894
-0.08110688 -0.037130065 0.8521746
-0.11651315 0.035706628 0.9339723
0.11078195 0.03172911 0.9295023
0.04615098 -0.065153 0.8260653
-0.02005558 -0.049159545 0.83992654
-0.114840135 -0.013675679 0.87354016
-0.18069568 -0.07777366 0.9827257
0.030044936 -0.031208102 0.8231632
-0.20478635 -0.0098063005 0.926488
0.050928377 0.043168843 0.8093739
0.10086695 -0.048222464 0.8277668
0.054353148 0.005586884 0.7581907
0.08355062 -0.05701283 0.82107556
0.080975115 -0.0122128595 0.83699375
-0.20447166 -0.019144593 0.937474
-0.22373685 -0.024427556 0.94893503
-0.21329957 -0.023939904 0.9449617
0.13667798 -0.058041252 0.8172269
0.02114376 -0.060697474 0.8234069
-0.15047632 -0.022786485 0.89710546
-0.1991123 0.049877763 1.0303003
0.017301243 0.01584439 0.7971832
0.0943829 0.015259833 0.89264315
-0.040530283 0.07042765 1.021034
0.10179544 0.01307394 0.8948597
-0.11655972 0.01510521 0.9205382
0.10920411 0.013468939 0.88955164
-0.046852317 -0.018562645 0.86609995
0.022880265 0.019471336 0.7985672
-0.05628916 0.0030779925 0.8936227
-0.047013793 -0.05108518 0.8434068
0.0910973 -0.015261842 0.83375466
-0.030201787 0.0561602 0.9754297
0.15581794 -0.02858004 0.81773084
-0.08323692 0.07323519 1.0168577
-0.20489267 -0.074960515 0.9767051
-0.024377013 0.04051915 0.959849
0.01496034 -0.011218884 0.79861987
-0.1516482 0.068111666 1.03681
-0.15440498 0.0028079154 0.92254627
-0.045438744 0.052154347 0.96284723
-0.15263365 -0.049119126 0.94486886
0.1626257 -0.04541641 0.81436515
-0.0032155418 0.0077649057 0.8000403
-0.18289019 -0.0007947704 0.93877643
0.15493757 -0.045587298 0.8136735
0.09245592 -0.05841256 0.82756567
-0.16819371 -0.0042657135 0.9241101
0.15875216 0.004311039 0.8993769
-0.1981551 -0.018629866 0.9437412
-0.047273606 0.08026835 1.0362568
-0.008093261 -0.051733885 0.8281715
-0.15145193 0.030570975 0.9443289
-0.10037008 -0.024649592 0.86475223
-0.23007776 0.0053601656 0.9790802
-0.12173638 -0.059726145 0.9156698
-0.016260851 0.031834207 0.93717736
-0.16114211 0.055475418 1.004344
-0.20451039 0.03411345 1.0129513
-0.23153642 -0.0021215412 0.98068
0.14551544 -0.003598888 0.86101997
-0.09213198 -0.080110386 0.9113808
0.09148383 -0.06666777 0.8223135
-0.08571577 0.06084218 0.96786326
0.14148836 -0.019924873 0.8406688
-0.21621503 -0.043899722 0.9723114
-0.14893572 -0.03531784 0.8977104
-0.021360517 -0.071877375 0.8594769
-0.040296115 0.035048384 0.92936194
-0.14712407 -0.0723246 0.95521003
-0.07508244 -0.03405881 0.8586382
-0.20872541 -0.07477372 0.98636603
0.05558176 0.042877957 0.8713065
0.064552516 0.021163283 0.75671345
-0.1706759 -0.04040528 0.94622326
0.1643378 0.022884242 0.9359045
0.06551557 -0.016255366 0.8316648
0.01258076 -0.0681244 0.8299392
0.0028346155 -0.032426324 0.82985175
-0.18056908 -0.052501626 0.9606408
0.09012127 -0.010782145 0.84611106
-0.12104727 0.029494625 0.9266557
-0.13052894 -0.06786899 0.93118715
-0.10602758 0.020588813 0.91643536
-0.040940527 0.06571869 0.994869
-0.07285821 -0.060948756 0.87757117
-0.03966967 -0.06345197 0.8591486
-0.12752365 0.05252559 0.965125
-0.08755831 -0.019279115 0.86300796
-0.05242617 0.023289833 0.9040308
0.063869 0.02275242 0.7569457
-0.012421304 0.027183546 0.9372161
0.08566318 0.0053579207 0.84998673
0.1552254 -0.016491825 0.8290797
-0.20855075 -0.07392242 0.98319244
-0.058391772 -0.00025906542 0.86746335
-0.060322408 0.017842222 0.9154224
-0.08407251 0.06010863 0.9675722
-0.032339267 0.085034266 1.0819621
0.16961734 -0.015244998 0.82270426
-0.11686156 -0.03381043 0.8794898
0.05807213 0.05350776 0.9402029
-0.1357878 -0.01612089 0.8819237
-0.103010565 -0.08366534 0.91941696
-0.03910546 -0.042263664 0.83673745
-0.035353024 -0.04640701 0.83555764
-0.17526712 0.021242151 0.9576589
0.068558864 -0.03501951 0.8270542
0.037704065 -0.0070901583 0.76555985
-0.09060457 -0.079298936 0.9025387
-0.22027582 0.038012434 1.0234761
-0.03718058 0.065999635 0.99160194
0.16679645 -0.018295988 0.83210725
