ply
format ascii 1.0
element vertex 1394
property float x
property float y
property float z
end_header
-0.350254 -0.06174977 0.79543465
-0.22604579 -0.1282782 0.8512316
0.08704331 0.082346246 0.9244572
-0.09917427 0.046053458 0.71067834
-0.27066958 -0.006274599 0.757501
-0.061418574 0.00574752 0.6880935
-0.33974588 -0.0742653 0.7828451
-0.12638989 0.0043080417 0.8340618
-0.28600746 0.009165949 0.775347
-0.18806982 -0.036863558 0.89107776
-0.14463545 -0.009879176 0.6974022
-0.16999613 -0.06593089 0.65423596
-0.13762459 0.05953321 0.7560955
0.06903529 0.10178207 0.6575803
-0.033150095 -0.05885673 0.62392485
0.011632109 -0.03438295 0.70092
-0.013920385 0.12250459 0.87602174
0.03331284 -0.036016695 0.73951226
-0.15245442 0.011891108 0.74399644
0.06399409 0.06324391 0.72904426
-0.17163071 -0.099135935 0.8433353
-0.16901104 0.020427033 0.80482703
0.07218616 0.0046060104 0.6908007
-0.2660727 0.015109727 0.76563
-0.1925104 -0.09954225 0.71155703
-0.035206694 0.08632951 0.6630661
-0.3047623 -0.014319368 0.8054427
-0.18323366 -0.18197447 0.8616627
-0.2307704 -0.04951918 0.8199479
-0.025649514 -0.07603319 0.7098639
-0.09402177 -0.077423096 0.93956476
-0.18770468 0.08527552 0.71519226
-0.38553017 0.057313833 0.8072482
0.023681022 0.047922473 0.757952
0.10999012 0.07252951 0.72028947
-0.21344778 -0.04784206 0.6789551
-0.2559768 0.005615337 0.6598024
-0.3708504 -0.06546028 0.7693051
-0.16777419 -0.0047776336 0.7787361
-0.016738027 -0.0038376807 0.67044604
0.04020897 0.03898771 0.7349844
-0.17218232 0.09411114 0.8733876
-0.28630045 0.019649372 0.68481714
-0.19936852 0.03273013 0.8527768
-0.19609532 -0.09776853 0.79420775
-0.36299086 -0.014018038 0.8568021
0.019985829 -0.039388098 0.74080396
-0.035611913 0.041371893 0.7022397
-0.12764528 -0.13316104 0.70168626
-0.17150499 0.037130937 0.84048545
-0.094762504 0.08069468 0.6013506
-0.26621598 -0.043437727 0.7537561
-0.13440087 -0.02426758 0.7444963
-0.1250284 0.045043156 0.69393337
-0.2274877 -0.156469 0.8538659
-0.2913902 -0.051050022 0.80993414
-0.31102037 -0.013824073 0.7267969
-0.13180491 0.012971781 0.7352308
0.041270167 -0.0023312839 0.6331243
-0.12296119 0.078396596 0.7721592
-0.08658051 -0.08956746 0.7934615
-0.007770007 0.13849394 0.71231407
0.0023878776 0.022462552 0.7120996
0.030001292 0.036958583 0.7138473
-0.2940928 0.018472617 0.9118097
-0.19710009 0.04636345 0.73181677
-0.0320136 0.07488928 0.66766083
-0.15218394 -0.14150128 0.7004311
-0.09183471 -0.108831726 0.63238424
-0.009300531 0.051103696 0.6521598
-0.10758506 0.038531605 0.84307843
-0.13344175 0.08048235 0.77973706
0.03500973 0.0019517569 0.7173708
-0.27311814 -0.079331376 0.74470395
-0.21595992 -0.1118436 0.76501286
-0.06495965 -0.08426043 0.7529664
0.0039354693 0.050723977 0.78148514
-0.09227922 0.031612683 0.76489955
-0.08034253 -0.040915877 0.66112274
-0.057580456 0.044236664 0.8821812
-0.17699319 0.11979246 0.9124706
0.033968754 0.032287944 0.55445844
-0.2565473 -0.019473396 0.7419227
-0.15229024 -0.054997396 0.7749197
-0.34552118 -0.1421879 0.80317736
-0.26805928 -0.007179849 0.7042706
0.064672686 -0.00611308 0.71612567
-0.21837088 -0.08917465 0.6567207
-0.31172124 0.0784253 0.9214878
-0.2221695 0.12660371 0.7038078
-0.059819996 -0.11898542 0.74549824
-0.30236533 0.03057186 0.89647543
-0.424619 -0.025553722 0.83675504
0.171826 -0.019656375 0.6903125
0.024681922 0.0008930296 0.686771
0.01091403 0.017035235 0.88242155
-0.15952843 0.0791857 1.0126252
-0.024221854 0.028974464 0.6767507
-0.19776617 0.085501865 0.79893625
-0.12196609 -0.038209617 0.75270057
-0.10888278 0.03090098 0.67885774
-0.26182765 -0.015500171 0.7627354
-0.2857292 -0.09066662 0.703455
0.0042230454 0.081224285 0.6740444
-0.18429507 0.067566976 0.7301278
0.028429512 0.10415241 0.6896362
-0.2642116 0.090717 0.72412986
-0.29169923 -0.0405807 0.8033542
-0.33928838 -0.09885981 0.8609469
-0.23633808 -0.028650692 0.78551465
-0.010389433 0.0424897 0.8038137
0.09592145 -0.014370035 0.69741344
-0.34152377 -0.07838286 0.7964526
-0.2568733 -0.019118328 0.78320444
-0.21641271 0.005469356 0.6793485
-0.19095226 0.07747435 0.9343684
-0.21438982 -0.06646412 0.8553949
-0.33180302 -0.07823972 0.8565028
-0.36444408 0.03302957 0.8553872
-0.2228307 0.048137818 0.8474561
0.015407883 0.03692084 0.6699498
-0.14698114 0.078181304 0.9662171
0.001130665 -0.11000982 0.76724654
-0.05356499 -0.0020102593 0.71197
-0.13081205 -0.013167946 0.6814594
0.06959063 -0.04046821 0.68998057
-0.3290499 -0.20505346 0.7881874
0.05697583 0.030575207 0.7038448
-0.2532836 0.020483823 0.77911824
-0.35029092 -0.039714597 0.7199898
-0.29813358 0.058442812 0.70255953
-0.33987656 -0.015075535 0.75481033
0.12749107 0.05580381 0.690605
0.030853372 -0.05274202 0.6064879
-0.110454656 0.059249293 0.76767665
0.05698049 -0.022819372 0.70968795
-0.28833988 -0.083091184 0.7737464
-0.13994226 -0.058779605 0.7122278
-0.07000508 -0.029265484 0.5931837
-0.32784128 0.032464653 0.82676786
0.15662548 0.053480778 0.68613535
-0.21606547 0.060369447 0.67673856
-0.17609625 -0.13383019 0.86577976
-0.058672182 0.025554474 0.64367497
-0.21694921 -0.09613887 0.84308475
-0.20774528 0.045376204 0.7574509
0.0028172287 -0.025604423 0.65976924
-0.24112095 -0.0161376 0.7649683
-0.31076595 0.015919536 0.8168689
-0.05041186 0.028765092 0.71431917
-0.293933 -0.041049127 0.71479577
-0.31198555 -0.049558815 0.7920305
-0.24609381 -0.08148786 0.8923281
-0.26706707 0.06146631 0.9499699
-0.2051611 0.10889568 0.72686654
-0.26759234 -0.12067902 0.8786796
-0.37813538 -0.008460544 0.7219441
-0.22030978 0.015304506 0.7880679
-0.1469188 -0.052884668 0.63017136
-0.1538969 -0.015862864 0.85058665
-0.27529126 -0.06670144 0.7719168
0.026581092 0.0028006472 0.6622979
0.008482837 0.068458036 0.74357736
-0.2140078 -0.104350775 0.8029077
-0.40547913 0.0018678943 0.82149565
-0.10954228 -0.0015405901 0.6887195
0.11829917 0.042228006 0.84223384
-0.2568869 -0.1658318 0.7833398
-0.05386824 -0.0017525399 0.65326566
0.019163894 0.027137222 0.6453109
0.0068964283 0.06084978 0.8433099
-0.3731417 0.00322807 0.88127226
-0.29278457 0.037146334 0.7806467
-0.2692418 -0.032291148 0.8879672
-0.13443853 0.05107929 0.904749
-0.29774705 -0.07918868 0.76363117
-0.37477088 -0.041945387 0.88057375
-0.36787105 -0.02977934 0.7574138
-0.30552465 0.07284199 0.94609004
-0.26688772 -0.120789096 0.7339843
-0.24862522 -0.100995496 0.7443773
-0.11901511 0.10778608 0.5621434
-0.3044978 -0.12287802 0.8467627
-0.036243062 -0.088270344 0.6714209
-0.0538715 0.108765095 0.72998
-0.3414286 0.009123531 0.7508483
-0.104522824 0.032066796 0.7664426
-0.14505143 0.04772818 0.78875464
-0.13348916 0.11138694 0.9394196
-0.16619459 -0.08281974 0.76818913
-0.16799219 -0.036684074 0.7282867
-0.24456072 0.0052688182 0.6654914
-0.004264301 -0.028972393 0.7966212
-0.32744962 -0.05685863 0.7608167
-0.086424656 -0.031261466 0.6701542
-0.14057854 0.029058898 0.7457264
-0.2438573 0.08903697 0.7741633
-0.18303828 0.011440521 0.7114155
0.09231415 0.08306766 0.6326269
0.002841678 0.09642897 0.70430946
-0.069273315 0.09056629 0.75406873
-0.27474546 -0.022293203 1.0572529
-0.20286058 -0.04957197 0.7461043
-0.33792663 -0.03762245 0.9649817
-0.22492738 -0.013667914 0.7835342
-0.15457228 -0.03809449 0.7094436
-0.07013498 0.041257393 0.6461424
-0.08457103 0.026977692 0.71221465
-0.29566815 -0.09954122 0.7527869
-0.11372334 0.11190544 1.0171233
-0.09940773 0.0831937 0.6674018
-0.15793173 0.06223336 0.6846366
0.26100498 0.010712026 0.6345383
-0.035106573 -0.10226062 0.70643836
-0.28609055 -0.08641366 0.78577584
-0.03431594 0.016703881 0.88880265
-0.15360306 0.0113880485 0.6432801
-0.09910565 0.0073098773 0.8627372
-0.08518542 0.0392435 0.61823577
-0.13508815 0.0416627 0.84780174
-0.07771295 -0.03587227 0.6580109
-0.26201823 -0.109757476 0.74399215
0.12603706 -0.0071054418 0.7427603
-0.057797182 0.03841025 0.6843713
-0.015316573 0.009282393 0.743548
0.0076240073 -0.025589261 0.7740613
-0.31256095 -0.023500476 0.74828535
-0.008057193 0.15264778 0.6841359
-0.113563456 0.016584618 0.7277
-0.039148018 0.07391583 0.7134196
-0.25595292 -0.14962637 0.860176
-0.025430642 0.057913035 0.83233875
-0.24952611 -0.030563585 0.71464163
-0.0937741 0.02871979 0.6778702
-0.25583956 0.062584475 0.77079874
-0.2227346 -0.0026531639 0.7551629
-0.27281228 0.036143053 0.7969521
-0.17813183 0.052792005 0.7471977
-0.18091056 0.017376415 0.6977785
0.029589364 0.009079349 0.7518899
-0.056959867 0.04046035 0.815999
-0.20641863 0.014163254 0.94936746
-0.09583287 0.085081846 0.63625735
-0.17814586 -0.13840398 0.7974776
-0.25629508 -0.017994888 0.75656885
-0.31936732 -0.07633103 0.7867037
-0.04763175 -0.0014732778 0.70054287
0.16919306 -0.00019302825 0.67030877
-0.026749263 -0.015784798 0.74819326
-0.23589532 -0.09006351 0.7900027
-0.086518764 0.06401287 0.8181105
-0.05937638 0.085982665 0.70509183
0.02853969 -0.011969946 0.67552495
-0.1096901 0.018727763 0.7333631
-0.36230448 -0.04349533 0.8657
-0.19641957 -0.11522076 0.7534873
-0.2509952 -0.18285982 0.89669067
-0.22047551 -0.01820755 0.7733664
-0.16308676 0.036924403 0.74388146
-0.057419714 0.09291011 0.96592075
-0.23434597 -0.17099342 0.8327696
-0.07956635 0.04395124 0.6929736
-0.163182 0.04206686 0.7458965
-0.18582638 -0.020532548 0.6922236
-0.07353521 -0.032177903 0.94434726
-0.15600063 -0.06195582 0.738733
-0.0711991 0.14092907 0.7739072
-0.111331254 -0.0322048 1.0638317
0.070198014 0.050472107 0.801526
-0.056545652 0.044490043 0.76481545
0.109460734 0.07258556 0.78414994
-0.2305737 -0.024320425 0.7323489
-0.015864238 0.0025975627 0.8599523
-0.3065083 0.082507014 0.76942754
0.028284855 -0.060108878 0.8992412
0.007436586 -0.06101349 0.65016794
-0.22599217 -0.02987295 0.7338527
-0.30117005 0.001983731 0.7531132
0.012739838 -0.06099076 0.7768635
-0.21090959 -0.06677241 0.7528197
0.009089841 -0.013381505 1.0079664
-0.20799845 -0.06413842 0.7583337
-0.12267254 0.019403689 0.6787708
-0.04319734 0.096943475 0.7070409
-0.16636232 0.01435543 0.9576468
-0.2490175 0.02213721 0.79555714
-0.22784175 0.05382186 0.93585354
-0.13104275 0.09525425 0.92830056
-0.13341542 -0.025635509 0.7115818
0.012576041 0.12790254 0.82579374
-0.07459095 -0.042804793 1.0307863
-0.16181691 0.054843616 0.9353059
-0.27138042 0.06075046 0.8330543
-0.2394416 0.12680562 0.8308494
-0.010797585 -0.039783288 0.88206804
-0.35753408 -0.12232351 0.7617325
-0.14832069 0.076450475 0.8808859
-0.10014457 -0.052721117 0.75936365
0.078870505 -0.00039216835 0.66019976
-0.018839847 0.00959013 0.6239395
-0.11439053 0.08416181 0.6742027
-0.24162287 -0.069856286 0.77214223
-0.3572193 -0.119725175 0.89410037
-0.30757937 0.025092699 0.7036549
-0.2618078 0.042632338 0.781776
0.07673127 0.016288022 0.7029126
-0.014577808 0.0056079077 0.70182586
-0.25552624 -0.042825624 0.84493124
-0.32828346 -0.12000211 0.8206146
-0.056245387 0.06744825 0.92480356
-0.15812938 0.0018302021 0.6045672
-0.0023773704 0.013874857 0.74229354
0.0136612225 0.0722373 0.91322386
0.06686905 0.014610967 0.7610005
-0.35631496 1.7235754e-05 0.8105387
0.04004076 0.055370342 0.7293332
-0.20306271 -0.066552974 0.6870658
-0.08155879 0.0348116 0.7722925
-0.22556323 0.084541015 0.7482124
-0.22026812 -0.059645656 0.814255
-0.1615076 0.016871719 0.71579456
-0.20864014 0.011701942 0.75503564
-0.07583345 -0.07348602 0.7007343
-0.12290439 0.038406577 0.6848985
-0.25070116 0.0038023589 0.7285964
-0.062050015 0.032407075 0.81616944
-0.08320116 -0.0147627145 0.7326703
-0.23251511 -0.0095027005 0.75708514
0.0036050188 0.0734315 0.7588559
-0.19965631 -0.051485516 0.76731855
0.05007745 0.0029112133 0.74128723
-0.2738986 -0.030577764 0.8129803
0.08874437 -0.04165963 0.6989908
-0.26639754 0.007051045 0.76264256
-0.2557068 0.012799511 0.8321501
-0.28888837 -0.061737157 0.78266835
-0.24733248 -0.08202869 0.82573915
0.04383031 0.009271831 0.71913147
-0.0033026938 0.13082334 0.963778
0.024426762 0.013718849 0.67459035
-0.24868514 -0.05979274 0.8344304
-0.13420151 0.090906404 0.6039251
0.09724506 0.083007604 0.6169563
-0.3020867 -0.06441327 0.82292557
-0.30505046 -0.009607818 0.7601748
-0.2181749 -0.06659249 0.7466067
-0.3701731 0.0042197816 0.8140173
-0.35050216 -0.10856169 0.75970775
-0.15193513 0.037794065 0.8766919
-0.33230895 0.07596319 0.81326175
-0.3548206 -0.046415236 0.73413926
-0.042845957 0.01682996 0.664971
-0.20327987 0.03584084 0.9299936
-0.22615783 0.020922938 0.87723935
-0.28209758 0.03670149 0.8904769
-0.27932265 0.0654276 0.75217867
0.0011597297 0.037726987 0.86905986
-0.29724205 -0.052448437 0.81198364
-0.20255747 0.019848287 0.9724106
-0.3814875 0.013035867 0.7605322
-0.2535047 -0.0046207453 0.73910016
-0.12836255 -0.07439129 0.7420011
-0.021590615 -0.048905913 0.725891
-0.0014474123 -0.096656196 0.98953795
-0.22784463 -0.019266933 0.77389634
-0.123890266 -0.0042952173 0.609984
-0.25114983 -0.14443628 0.7284248
-0.33808872 0.031191478 0.93693334
0.12304649 0.0014144266 0.67429805
-0.3129431 0.005695093 0.73176265
-0.041760404 0.048642106 0.69394964
0.051593166 0.0097316755 0.7571908
-0.32653785 -0.008006694 0.8313254
-0.2780737 0.03979386 0.70153356
-0.26863566 -0.05930362 0.773573
-0.036076292 -0.063525006 0.80675226
-0.10715848 -0.04499442 0.6658637
0.007888515 -0.023833366 0.7173785
-0.37536922 0.0050412086 0.8686149
-0.06704589 0.07001164 0.85165006
-0.07163231 0.006529089 0.74543893
-0.30391255 0.090350464 0.7522853
-0.33126998 -0.06269374 0.7812072
-0.14219421 -0.12935622 1.1280525
-0.15899408 0.08376213 0.85141796
-0.1997007 -0.042259768 0.73553914
-0.27728915 -0.035195626 0.6565752
-0.29702568 -0.08575074 0.77225417
-0.01835966 0.046008363 0.6994143
-0.066445716 0.054793116 0.88552046
-0.04541548 0.08237268 0.6645821
-0.108251505 -0.035170734 0.7125196
-0.27051592 -0.023244781 0.7942287
0.07605718 0.09870959 0.7509499
-0.10511058 0.004175722 0.8330178
-0.28585142 -0.026907807 0.70465404
-0.06678009 -0.044184774 0.7469233
-0.2332903 0.060288195 0.71331537
0.011814107 -0.0144509375 0.7067466
0.17580017 0.027817192 0.71193624
-0.31506553 -0.05738628 0.74375385
-0.28127897 -0.012686973 0.8383141
0.009915657 -0.04690664 0.6942638
-0.19718772 -0.02884779 0.67246735
-0.067254156 0.0090311095 0.85179967
0.18791717 -0.020057345 0.5585179
-0.08943788 0.013212854 0.6073893
0.041608233 -0.0015454617 0.78339946
-0.22228709 0.089894004 0.882669
-0.18789196 -0.10903868 0.78368753
-0.0051678824 0.041826513 0.6945291
-0.15976307 -0.07486112 0.5736981
-0.24821869 -0.09851323 0.7780918
-0.09196734 0.054892246 0.65494084
-0.26828894 0.047102973 0.8776181
-0.121765606 0.030326553 0.7687861
-0.04870265 0.05525543 0.8321507
-0.19918776 0.07295991 0.949208
-0.064715125 -0.027946109 0.83572805
-0.022454489 -0.037822332 0.7137705
0.06839139 0.0676783 0.78004295
-0.14042549 0.031848066 0.57048744
-0.33909893 -0.055042714 0.71696603
-0.3532351 -0.08998804 0.73403704
-0.33495095 0.13121495 0.7746844
-0.24313183 0.06587009 0.84891856
-0.2093036 0.03268908 0.6296831
-0.1350621 -0.033487346 0.6939611
-0.08741728 0.007163895 0.5996442
0.0100732595 -0.059402253 0.6522222
0.075617746 0.094523266 0.6616091
-0.21861227 0.033827633 0.77959955
-0.2290793 0.112016566 0.77089
-0.3183005 0.02428754 0.90483737
-0.14490244 0.06564331 0.9758459
0.018077157 0.028370116 0.7865862
-0.3880953 -0.002939135 0.89010453
0.010165378 0.038425684 0.72311693
-0.24011292 -0.025874881 0.7084703
-0.3221293 -0.039258987 0.7883255
-0.21305539 -0.050522525 0.6996726
-0.07452189 -0.0051312433 0.640078
-0.24112275 -0.11318741 0.71793205
0.046869326 0.047783677 0.60599226
-0.24480234 -0.009528585 0.76060367
-0.31588215 -0.044400357 0.8727508
-0.26348758 -0.1265017 0.94946814
-0.21383432 -0.060863465 0.7083106
-0.06501843 0.081861846 0.84891206
-0.17958637 0.06519508 0.97387505
-0.2336394 0.044693183 0.8341085
-0.16337092 0.03864648 0.7290875
-0.2648498 -0.083973974 0.82599264
-0.22280648 -0.058088385 0.8670206
-0.15935445 0.10031158 0.96951985
-0.06504844 0.11545402 0.6710118
0.001139449 0.020437976 0.6044461
-0.06575404 -0.047559936 0.89977515
-0.07116227 -0.011307074 0.69915617
0.017178804 0.11164636 0.70980823
-0.11295708 0.037977073 0.765789
0.13084699 0.006587356 0.8666751
-0.0039323303 0.02907018 0.6797769
0.08723247 0.052663915 0.65678114
-0.2216783 0.037532277 0.755355
0.07790074 0.04609861 0.6597902
-0.06640804 -0.026171718 0.91795236
-0.29138964 -0.013355109 0.7568558
-0.24103186 -0.11075031 0.8142488
-0.17531945 -0.09695359 0.68620235
-0.17454901 0.041830264 0.60636324
-0.30103058 0.001301798 0.80417544
-0.04287729 0.10509026 0.70954543
-0.19389051 -0.053184632 0.7317431
-0.17981552 0.02678255 0.6124194
-0.11906787 -0.037064046 0.79776305
-0.015176218 0.022868404 0.7234292
-0.3738726 -0.012942191 0.72851396
-0.046016794 -0.08767979 0.9558798
-0.21606399 -0.12415884 0.7520615
0.055871647 -0.0068052323 0.5596278
-0.3270028 -0.026834762 0.66868013
0.087746955 -0.031194253 0.863608
0.06353148 0.002329317 0.6718014
-0.10825815 0.06812428 0.6724751
-0.28088307 -0.03347386 0.7045405
-0.18144092 -0.13158089 0.68985045
-0.07973341 0.091767855 0.6952485
-0.020675575 0.040336847 0.9088126
0.042268448 -0.06375904 0.7177203
-0.25637177 0.054345552 0.8853366
-0.24289322 0.04610954 0.85230255
-0.38298813 -0.042301334 0.823571
-0.27502394 0.007854694 0.66702366
-0.119033895 -0.015944596 0.6453712
-0.010661671 0.090779796 0.7418626
-0.20546365 0.03656943 0.76465064
0.019605458 0.118174076 0.7197606
-0.2822563 -0.059082918 0.7260967
-0.12526956 0.040503018 0.7010903
-0.18730102 0.07477042 0.7159778
-0.33493507 0.057612717 0.67882806
-0.18695717 1.9000843e-05 0.64392555
-0.2674549 0.081465654 0.83190536
-0.2634314 0.08789431 0.91603255
0.06864943 0.012050716 0.7495872
0.11474523 0.12303419 0.80373967
0.041473016 0.036091283 0.7311458
-0.24277498 -0.02552718 0.76023895
0.002745166 0.034792602 0.77751386
-0.0025481978 0.04167007 0.7225519
-0.16777363 -0.098829664 0.8343265
-0.25725165 -0.047403976 0.7585614
-0.27234694 0.0077298735 0.9057006
0.09763792 -0.02208755 0.6102335
-0.20532264 -0.08405317 0.8226534
-0.16389367 0.109985635 0.73306435
-0.0026392979 -0.05397702 0.96697533
-0.20061879 -0.07952819 0.711165
-0.30747417 -0.03960977 0.6921751
-0.034272492 0.045963395 0.7634743
-0.017042326 0.066407785 0.7276177
-0.18269105 -0.061148725 0.740085
0.027189929 -0.0017435143 0.65958995
-0.29666847 0.027994452 0.8547504
-0.08111935 0.07790595 0.92537355
-0.101048574 0.030435057 0.78482544
-0.10391633 -0.059161883 0.7484449
-0.27398348 -0.0030717417 0.73613095
-0.13865288 -0.07979877 0.91534024
-0.1155002 -0.0827153 0.7608005
-0.07479888 0.06637515 0.8242685
-0.30673563 0.009533195 0.84705096
-0.14009091 -0.0050609354 0.68761444
-0.040045086 -0.023909425 0.81509405
-0.055443637 0.07868041 1.0467477
-0.08552174 -0.07576311 0.71015483
-0.13191025 -0.05845438 0.6638859
-0.093571894 -0.027546808 0.7542875
-0.24954922 0.11329088 0.77642804
-0.0534616 0.061660074 0.83704495
-0.076946475 0.020491088 0.70675164
-0.10557947 -0.017655201 0.7630796
0.030074118 0.11237782 0.703338
-0.20235445 -0.04455836 0.66610813
-0.30117142 0.08299701 0.8304322
-0.23708431 0.12408446 0.8408193
-0.32621014 0.0029078308 0.84077424
-0.104413845 0.0028485828 0.87111247
-0.25601265 0.03510702 0.59760815
-0.22782673 0.033689667 0.8173887
-0.10652526 0.0019754402 0.6980783
-0.03568173 0.0923139 0.9079646
-0.16978724 -0.034729812 0.688184
-0.27034485 -0.0049128844 0.74393153
-0.20712525 0.0566694 0.8557142
-0.1372266 -0.079927675 0.69358957
-0.14495502 -0.111358754 0.7373821
-0.16729087 0.041721147 0.79900265
-0.32291818 0.028496033 0.8191523
-0.07801542 0.014214676 0.72739565
-0.20735334 -0.006005233 0.68694985
-0.11304771 0.06351781 0.57432693
-0.18969032 -0.02028294 0.8619279
-0.286089 0.14706333 0.8477794
-0.1677268 -0.029428609 0.7193135
-0.084697366 -0.04532154 0.6208551
-0.04301371 0.061350144 0.63758564
-0.34758595 0.016744126 0.86714745
-0.16199775 -0.11837685 0.8199524
-0.24499364 0.034283496 0.7619007
-0.30999878 0.02529011 0.89138114
-0.07630955 -0.15299176 1.0247889
-0.08570532 0.051330674 0.688972
-0.13115299 0.027661815 0.68409234
-0.12784834 -0.07683136 0.7689502
-0.17880468 0.06845086 0.7078219
-0.37321746 -0.076074384 0.7955406
0.1336504 0.012477152 0.72190803
-0.16517353 -0.04053542 0.8679611
0.038379803 0.08796082 0.71335775
-0.18501537 -0.005412694 0.6513433
-0.05228653 0.036965404 0.6859649
-0.20683317 -0.022872541 0.7041525
-0.072280414 -0.05903195 0.6307285
-0.013725751 -0.005622289 0.9379074
0.05128347 -0.05726939 0.6220866
-0.30435556 -0.092513196 0.80756754
-0.22669035 0.053277295 0.6566597
-0.27070263 -0.019427665 0.73135245
-0.3230846 -0.05343032 0.8542466
0.019440316 0.041640047 0.7665188
-0.0079159755 0.045975544 0.6366941
-0.19732198 0.07064904 0.8866426
0.10165725 -0.047202416 0.6872398
-0.21402559 0.019086841 0.85623306
-0.07938203 0.034540046 0.70005655
-0.15714774 0.035315335 0.72833383
-0.008792905 -0.023944804 0.69946074
-0.17673667 0.076098956 0.80698985
-0.33067247 -0.11352511 0.71586114
-0.020488288 -0.02691567 0.680493
-0.22279838 0.022562865 0.79285425
-0.25691295 -0.034311585 0.8026113
0.01928646 0.01767159 0.7134921
-0.1876708 0.10652583 0.83378905
-0.31728962 0.008895062 0.69466215
-0.17976975 0.14042023 1.0043606
-0.08867584 -0.02648361 0.71272564
-0.30410412 0.062307067 0.8294789
-0.10445281 0.09628082 0.7518399
-0.058603764 0.07881918 0.8265868
0.020375468 -0.03467725 0.75280344
-0.14837258 0.054632027 0.7628062
-0.1952432 -0.020118726 0.6539641
-0.06175528 0.0015973272 0.80367225
-0.31965083 0.055310283 0.80186677
-0.27598017 -0.09614559 0.8872155
-0.23275904 0.015241478 0.6815271
-0.3153443 0.086848855 1.0159879
-0.21168043 0.07218862 0.78054947
-0.1979335 0.057748146 0.7898377
-0.21487312 -0.06606301 0.79093206
-0.36811274 0.0030250857 0.81802315
0.032394174 0.066463426 0.6969934
-0.04676443 -0.041088123 0.72100466
0.0077027283 -0.06371299 0.72162545
-0.14160036 0.08526005 0.8045558
-0.2985416 -0.06999734 0.7634703
-0.16163729 0.14596854 0.92130923
-0.056698132 -0.07150979 0.6430706
-0.012919343 0.059613634 0.69573593
-0.12086841 -0.025586234 0.7059571
-0.11857139 0.12898117 0.8198821
-0.099473365 0.030374601 0.7636134
-0.18122044 0.054425254 0.7805987
-0.3080432 0.06669836 0.80269647
0.06406181 0.0004656068 0.73248476
-0.06944348 0.106836595 0.6845822
0.022598024 0.038916398 0.66300756
-0.3102517 0.018074486 0.8833221
0.11128022 -0.011755502 0.71507436
-0.3207215 0.02699499 0.8337258
-0.22000308 0.05768835 0.72248214
-0.13508165 -0.0021188157 0.61107063
-0.36416677 0.075986356 0.8888779
-0.12700054 -0.0064351233 0.7103515
-0.2528386 0.11627832 0.9019293
-0.04555271 0.024011567 0.67232454
-0.27821198 0.039735302 0.7397824
-0.284646 -0.089111045 0.82575506
-0.27499026 -0.01813192 0.73560506
-0.084746145 0.11192581 0.8584306
-0.25198796 0.06548059 0.95270795
0.004502875 0.049270015 0.6034924
-0.26879492 -0.028156798 0.7662281
-0.054886203 0.0552443 0.65884066
0.002175672 0.009565128 0.7107226
-0.2755211 0.027648453 0.6309955
-0.25863385 0.13648146 0.9545617
-0.038906656 0.022155987 0.7302057
-0.2060675 1.657242e-05 0.7663016
-0.117682815 -0.07227146 0.64764357
-0.06435497 -0.023722077 0.6373766
-0.05415508 0.05669731 0.6789312
-0.18662095 0.095103934 0.8697734
0.040317323 0.06561428 0.84267956
0.17395265 0.040611424 0.7640096
0.034311127 0.06916588 0.8778676
-0.033191804 0.067678206 0.79429394
-0.07775511 -0.007936547 0.684185
-0.28687033 0.054286506 0.8364637
-0.15527153 0.07950544 0.82103425
-0.16155538 0.065594815 0.79818034
0.004380445 -0.017490353 0.7498689
-0.09653364 0.03497552 0.64221394
0.014018364 0.12357216 0.8582551
-0.12114801 0.005279767 0.70111537
0.12561636 -0.04014872 0.6151247
-0.23253897 -0.046141498 0.81703436
-0.09383088 -0.062394567 0.70029324
-0.09566978 -0.07464658 0.63705885
0.0054604374 0.016823733 0.7056589
-0.07568703 0.105868556 0.65991867
-0.3382714 -0.04423359 0.8037957
-0.017553749 0.13284096 0.8423246
0.012683309 0.065530576 0.6668348
-0.05998786 -0.014579203 0.71410584
-0.13170514 0.05195492 0.7518582
-0.11878773 0.08430537 0.7136672
-0.34833595 0.03639051 0.88105524
-0.040102206 -0.115847476 0.93458086
-0.16967899 0.10607352 0.715164
-0.25024244 0.005887418 0.7227803
-0.3525236 0.0045212964 0.7032265
-0.31022736 -0.08806516 0.79162735
-0.29995412 -0.03682574 0.83780223
0.017696043 -0.030907989 0.79360765
-0.04826133 0.06565287 0.9021303
-0.26108867 0.077318236 0.7416203
-0.1739312 0.03583502 0.82166684
-0.31637695 0.015037404 0.74812007
-0.06877869 0.021897012 0.7927795
-0.15625338 0.021783812 0.7331385
-0.091737576 0.010600723 0.75194687
-0.34172735 -0.09717574 0.82398564
-0.2908799 0.04246019 0.7960053
-0.0046622176 -0.0004257771 0.649306
-0.027606858 0.0787851 0.62278974
-0.07615351 -0.06089034 0.6752611
-0.045754213 -0.014156301 0.62709165
-0.3009258 -0.007960157 0.80994993
-0.20808572 -0.098548286 0.68790823
-0.1435981 0.06307749 0.7122762
-0.2455553 -0.09157707 0.8039383
-0.31974256 -0.097366616 0.8768081
-0.22977225 -0.10975895 0.7672377
-0.3796397 -0.018869387 0.83407915
-0.311812 -0.085572295 0.73127854
-0.038272563 0.090213716 0.6871993
-0.07990732 -0.02285119 0.7141085
0.074880674 0.08090021 0.7612441
-0.24669957 -0.040519092 0.7437337
-0.0939026 0.045308396 0.6304065
-0.14402346 -0.011862848 0.62238497
-0.2259015 -0.03430645 0.6794886
-0.033020172 -0.030330945 0.6908187
-0.3065268 -0.00042378157 0.7380834
-0.008784007 -0.02840819 0.66137624
-0.06233236 -0.07395358 0.8829899
0.061659276 0.012087649 0.70747346
-0.18694067 -0.049310975 1.0231944
-0.32204577 0.04746213 0.7511237
-0.047148027 0.04281836 0.6939616
-0.06424689 0.084335454 0.66987133
-0.17673385 -0.112339675 0.7790182
-0.008989651 -0.012121388 0.66836756
-0.18482964 -0.122872084 0.66729015
-0.08173842 0.058072086 0.62931263
-0.32936504 0.008354139 1.0174092
-0.07946292 0.07759279 0.7249536
0.017983073 0.004355841 0.7297332
-0.09012368 0.064659126 0.91803163
-0.3250838 0.009237163 0.87490076
-0.05229875 0.03983475 0.63158816
-0.17162444 -0.012423977 0.65694124
-0.27652207 -0.08685551 0.7595732
-0.18031044 0.013076199 0.70144063
-0.28876182 0.047809836 0.7833668
-0.17212754 -0.12347804 0.78438884
-0.030386845 -0.07989719 0.8459164
-0.32740742 -0.088555224 0.81253546
-0.05549114 -0.08394113 0.58032906
-0.045325905 0.03719739 0.8922558
-0.2167316 -0.050844744 0.71840256
-0.018808143 -0.075032555 0.6698638
-0.10757473 0.10733638 0.69668174
-0.34355494 -0.035977703 0.79873663
-0.32643795 0.039647102 0.8647229
-0.27360106 0.017648645 0.74841887
-0.103871875 -0.045795877 0.60383976
-0.1177281 0.029777544 0.7386758
-0.26949888 -0.045230925 0.7992526
-0.052519515 0.02011091 0.69381946
-0.060999732 0.004708918 0.8027805
-0.2712467 -0.01827226 0.79724413
-0.2727253 0.06403166 0.720465
-0.340412 0.025380718 0.76056236
-0.22140111 0.014171515 0.7748463
0.15779704 0.032449655 0.6164585
-0.24124742 0.041371576 0.86141783
-0.20649227 -0.018104648 0.67726785
-0.05693118 -0.047090776 0.81472015
-0.2194531 0.037732154 0.77546614
-0.24163924 -0.09430101 0.7790987
-0.12653255 -0.016333288 0.6401344
-0.10249377 -0.052175768 0.62535655
-0.15881602 -0.05876721 0.77495784
-0.29474086 0.021608332 0.73356086
0.0703337 -0.01071793 0.7280987
-0.035465248 0.0064096893 0.97322583
-0.34333533 0.08653721 0.82031107
-0.012827779 -0.038832605 0.84014267
-0.01639102 -0.018778557 0.67657375
-0.24655834 0.062351458 0.8962744
-0.12727444 0.029650968 0.6828971
0.08197278 0.08510052 0.7629049
-0.10918298 -0.057673205 0.8413644
-0.2645928 0.023761991 0.83244455
0.07056225 0.03069385 0.722442
-0.16931184 -0.040740155 0.69366527
-0.2757729 -0.10435985 0.7052163
-0.1726577 -0.07953093 0.7082937
0.09029392 0.040378593 0.74014676
-0.0037087577 -0.0007699039 0.67696
-0.017759725 0.059628002 0.7195415
-0.21071357 -0.11350525 0.76513106
-0.17785347 -0.015079921 0.8827187
-0.27684915 0.046114955 0.7282779
-0.030394956 0.045541674 0.77038133
-0.2954979 0.08147673 0.8035188
-0.042160295 0.10232862 0.7697244
-0.2787738 0.04742683 0.6517227
0.04435744 0.02977098 0.73717034
-0.26644096 -0.021182079 0.7965069
-0.25804868 0.14645503 0.8569576
-0.03237678 -0.0134483315 0.7205375
0.022948332 -0.066375665 0.6903446
-0.2363909 -0.015775492 0.7590687
-0.31108513 0.016761156 0.72628903
-0.15236583 0.06531583 1.0196302
-0.30121675 -0.06536411 0.75688475
-0.17569147 0.01574301 0.7114629
-0.2362439 -0.09981289 0.7948667
-0.09662581 0.08947108 0.7412552
-0.09230977 0.004676855 0.62938434
-0.22540325 -0.08115983 0.8046991
-0.027090807 0.04523524 0.6020494
-0.024303677 0.0952784 0.8184971
0.04874431 0.05391395 0.7237532
-0.0044865767 0.07876407 0.6889612
-0.3481486 0.034474514 0.703326
-0.24844444 0.01403207 0.773626
-0.21223807 -0.14702034 0.93184537
-0.038154393 0.14245965 0.65090847
-0.18440366 0.053238884 0.73798925
-0.21013206 -0.012208944 0.77036333
-0.02297637 0.020859143 0.82335556
-0.062533766 -0.020992672 0.66034657
-0.19891532 -0.07407209 0.7611332
-0.36962435 0.04477084 0.75646627
-0.15305488 -0.007766683 0.6648886
-0.17404705 -0.0726453 0.67366284
-0.06520101 0.0470736 0.8963486
-0.102641 -0.051659424 0.6457212
-0.20349778 -0.080480814 0.8430244
-0.06334819 0.03947164 0.6669947
-0.037122242 -0.13128409 1.0171945
-0.2966595 0.06782284 0.92361844
-0.06540434 -0.011516771 0.9318236
-0.005221033 0.14448723 0.89628303
0.005063572 0.049553525 0.74139005
-0.33064342 -0.037192404 0.7232937
-0.011316109 0.016756777 0.62609184
-0.22991896 0.0048079146 0.7173364
-0.036801603 -0.0717703 0.64809936
-0.16133165 0.054011013 0.8911967
-0.26820475 -0.08154123 0.7050234
-0.13033172 0.08741627 1.1078026
-0.054265205 -0.03451255 0.6819191
-0.3205 -0.07620642 0.82487756
0.08145707 0.039389998 0.7329466
-0.21606478 -0.06414183 0.776196
-0.2746197 -0.0883732 0.81835735
-0.24228814 -0.048419923 0.77835995
-0.31323645 -0.11517555 0.8259663
-0.20244372 -0.039239522 0.8334098
-0.033284966 -0.037303757 0.6408205
-0.25412428 0.1380184 0.97773635
-0.21018815 -0.028890103 0.74245393
-0.1989054 0.026729083 0.78520596
0.117985144 0.048204526 0.7237644
-0.2538113 0.005587208 0.743069
-0.057769954 0.06332985 0.6642187
0.08758498 0.008672983 0.6769624
-0.17223236 -0.016313698 0.69632924
-0.0074927416 0.02206839 0.6140371
-0.18980435 -0.117162 0.86836493
0.13173553 -0.12054472 0.92771244
-0.20485537 0.12094679 0.82804614
-0.08781735 0.07429984 0.6715027
-0.3561202 0.053347588 0.71060336
-0.09359434 0.028587729 0.7725401
0.15492736 0.09595897 0.8900656
0.19503804 0.009407538 0.6506023
0.14452384 0.001191128 0.58539
-0.21090566 -0.023900196 0.78145105
-0.2453653 0.071314596 0.7502286
0.08319568 0.07525075 0.66791636
-0.045080084 -0.00984029 0.70134693
0.047779478 0.08987602 0.73276204
-0.31886712 0.02756787 0.8191038
-0.11733906 0.10698843 0.9577905
-0.24932227 0.0015670531 0.8394041
-0.27042323 0.06723928 0.969334
-0.24565816 -0.086243846 1.0220844
-0.29711664 -0.043301735 0.75856286
-0.21072496 0.013495624 0.7075407
0.0059436024 0.061525248 0.6526163
0.025115617 0.009064743 0.698545
-0.0015190754 0.034098826 0.6840798
-0.1512607 0.108528644 0.6125052
0.06554789 -0.0076391445 0.75912595
-0.08060268 -0.029532608 0.72233915
-0.33949736 0.048959054 0.8882063
-0.084587455 -0.05019705 0.6617839
-0.021662991 -0.03436893 0.6455576
-0.2802839 0.056163404 0.88604885
-0.007121558 0.020396352 0.689926
-0.009002216 0.056599047 0.8065478
-0.33204785 -0.09753726 0.8482241
-0.0960519 -0.091676906 0.67380244
0.06791855 0.034024112 0.71690387
-0.10711773 -0.001618928 0.8244203
-0.29476485 -0.034905817 0.76975274
-0.18405437 0.059907142 0.81958115
-0.39739418 -0.08914842 0.7993708
-0.32751817 -0.08156949 0.79267955
-0.10553128 -0.085011825 0.7171895
-0.29105633 0.028862646 0.7872837
0.15616088 -0.028094113 0.67995596
-0.21051866 -0.0142402 0.69991267
0.014380973 0.02768965 0.6237165
-0.2408182 0.0065237135 0.731563
-0.039186396 0.015265648 0.6963825
-0.12309066 -0.059089426 0.7084027
-0.1070524 0.042004555 0.82749414
-0.019285563 -0.050684154 0.63770264
0.06015958 -0.023937577 0.7730968
-0.27117544 0.0038069868 0.8509281
-0.048143547 0.0574353 0.7072565
-0.2197302 -0.0621067 0.6937653
-0.3381434 -0.05938611 0.84823006
0.0029475077 0.12475358 0.7546184
-0.31020355 -0.105694726 0.77445376
-0.0149201285 0.10981055 0.64795715
-0.25700524 0.026793495 0.74994284
-0.24601412 -0.04686596 0.80605394
-0.2768778 -0.010042895 0.8016734
-0.14951819 -0.024515249 0.7971104
-0.26685715 0.026048208 0.7381606
-0.14185874 0.098871365 0.7879349
-0.3519163 -0.107666284 0.7133253
-0.14222205 0.036331277 0.7711071
-0.18904343 -0.092455216 0.7636843
0.023175623 0.1481026 0.6781547
-0.2645833 -0.03900992 0.7411589
-0.16201396 -0.058178127 0.69752586
0.024090849 -0.050676223 0.70049495
-0.14392062 0.074496165 0.6448294
-0.25296474 0.08469487 0.92005146
-0.2578533 0.06688714 0.7319192
0.080323644 0.068849444 0.71457475
-0.19514684 0.10470295 0.80361825
-0.19778024 -0.050232 0.6501014
-0.31207407 -0.010383798 0.7403018
-0.18572326 -0.09659964 0.79452014
-0.110935286 -0.0063017863 0.70933175
-0.076504484 0.05978146 0.69186664
-0.07699961 -0.025851352 0.69464576
-0.02934539 0.071543366 0.65149593
-0.17068537 -0.038637146 0.7128569
-0.21962835 -0.14355691 0.5855932
-0.0050195963 0.041410703 0.6878834
-0.15201083 -0.017098479 0.6466693
-0.25661734 0.03877489 0.69415903
-0.13639502 0.1239706 0.7896294
-0.29120868 0.05509151 0.91062164
0.09346595 0.05275053 0.7874072
-0.28427556 0.09705471 0.88119197
0.11513827 0.15344238 0.70412225
-0.30915612 0.009012122 0.84285367
-0.13477466 0.008533505 0.82748866
-0.31795076 -0.017429698 0.706351
-0.3085184 -0.0893105 0.7906651
-0.045004003 0.05782726 0.7373405
-0.25515056 -0.07327172 0.8179538
0.02806082 0.13463347 0.7197281
-0.2215562 -0.009629099 0.8045638
-0.14420694 0.07439903 0.61936694
-0.047503322 0.0100992555 0.8096055
-0.36233976 -0.06323898 0.81608516
-0.15174235 0.058781102 0.76813054
-0.13234402 -0.012512498 0.6838325
-0.1425241 0.04995482 0.78569305
0.0397593 0.0961316 0.681359
-0.22382964 0.1332967 1.0416884
-0.27302662 0.0016456554 0.70625347
0.08108759 0.08437008 0.74703753
-0.17042786 0.11442023 0.8767011
-0.03319659 0.03871495 0.7125195
0.04360522 0.11729702 0.6940046
-0.13464296 0.02697724 0.6361755
-0.27782694 -0.13908453 0.7372579
-0.23472805 -0.10327327 0.7752394
-0.2473536 -0.05870522 0.7608177
-0.055785682 0.03562701 0.6411582
-0.08731229 0.034815714 0.8045411
-0.12408486 0.10552517 0.971911
-0.18647912 -0.03975434 0.77679205
0.1650121 -0.0033396287 0.9283492
-0.3335479 -0.05070719 0.83453923
-0.1747137 -0.028351076 0.73759425
-0.31647813 -0.16686149 0.94659185
-0.0035621992 0.026378984 0.7609313
-0.13547921 -0.05138453 0.6886962
-0.01651374 0.1158581 0.77323157
-0.197336 0.017847294 0.6207594
-0.2312293 -0.024864364 0.7041401
-0.37888056 0.016628582 0.8861832
0.048957597 -0.04176202 0.7996764
-0.10026253 -0.051814366 0.73995733
-0.30062813 -0.05718546 0.7658748
-0.25308785 -0.08015056 0.836797
-0.12625888 0.09258168 0.65683955
-0.2589867 0.10073455 0.89632064
-0.19533616 0.09297989 0.7182389
0.0044377064 0.05990298 0.7553495
-0.17775095 0.11799232 0.83281523
-0.1480463 0.08752077 0.7859245
0.007705264 0.08065483 0.7431599
-0.13503869 -0.056660738 0.68669367
-0.11499557 -0.10975253 0.6974932
-0.2314056 -0.014696237 0.77231604
-0.35890833 0.071769334 0.777559
-0.24469356 -0.07277588 0.73460776
-0.17946355 0.09235409 0.7629775
0.088264495 0.0913407 0.74322057
-0.0544163 -0.005287346 0.80044097
-0.0026964494 0.055684105 0.6715168
-0.017548721 0.08343577 0.77824897
0.01773503 0.031233657 0.6361653
-0.031528212 0.022284232 0.7307486
-0.15831153 -0.041628715 0.72652787
-0.21730952 0.13184606 0.9514989
-0.08168965 0.091737546 0.717676
-0.23283792 -0.08701125 0.82989097
-0.13189876 -0.0031237453 0.7911414
0.028986828 -0.032398738 0.72390145
-0.1177731 0.080588475 0.7666182
-0.16134498 -0.06319834 0.68367743
-0.18873352 0.036312535 0.6335886
0.055914443 0.108563215 0.7536221
-0.020161714 0.0119144935 0.75304985
-0.14354292 0.024175065 0.66509867
-0.25576103 -0.11308398 0.8176722
-0.09809083 0.06748438 0.6569067
-0.04612355 0.03220025 0.6993888
-0.19642931 0.0059883287 0.73224324
-0.1285213 0.056710463 0.68126106
-0.20121318 -0.032577816 0.87528455
-0.2267465 0.053683758 0.86487675
-0.21224335 0.023350999 0.65582865
-0.21816863 0.08358019 0.89804655
-0.18647751 0.05245791 0.7622788
-0.27867264 0.06924792 0.7669051
-0.031720836 -0.054895326 0.6830978
-0.27537346 -0.13195185 0.8134907
-0.13859919 0.08802322 0.81436306
-0.030186214 0.034339536 0.69378525
-0.23844495 0.052302506 0.6757319
-0.30239177 0.011833044 0.78342336
-0.27835432 -0.05437533 0.8259106
-0.25151438 -0.08682701 0.9057067
0.02260695 -0.09172437 0.69665426
-0.27354783 0.09730434 0.8295203
0.009813769 0.050112084 0.61492884
-0.27921167 0.056532644 0.9912658
-0.27182037 0.049354322 0.7976411
-0.32858607 -0.063540265 0.8542265
-0.20224743 0.0073261387 0.7423074
-0.09390806 -0.049296807 0.7384432
-0.015992256 0.06734245 0.715631
-0.035807226 0.055326376 0.6267473
-0.3291499 -0.04284415 0.8251004
-0.25811148 -0.049826663 0.7831913
-0.32855085 -0.016766252 0.7089438
-0.039248906 0.048386052 0.6522592
-0.32864034 -0.12164116 0.7546106
-0.09233095 -0.03441945 0.698858
-0.32396895 0.09263178 0.7298049
-0.1348735 0.016638523 0.66453105
-0.23774499 0.06179682 0.8148915
0.022911731 -0.034865733 0.76821566
-0.30252254 -0.036679056 0.88386065
-0.3445739 0.0719246 0.81301165
0.11947336 0.023733597 0.63932574
-0.054106098 0.016096469 0.80129236
-0.19016685 -0.025589384 0.76246923
-0.09742457 -0.03768772 0.7193648
-0.15994349 0.010656744 0.7252935
-0.04021793 0.03383204 0.8487415
-0.037573125 0.03742449 0.7562556
-0.124601625 0.027953334 0.6565653
-0.20341948 -0.023020318 0.7759224
0.061410993 -0.032337453 0.70885307
-0.17856936 0.05608454 0.75198764
-0.10467229 0.02470938 0.6724765
-0.10288143 0.04260903 0.7282294
-0.0134271085 0.06916857 0.6529089
0.07931193 0.053962067 0.6010613
0.074705176 -0.022683553 0.7131319
0.050046586 0.028383918 0.54547477
-0.04322613 0.100860566 0.76174754
-0.27042106 0.0060746158 0.79745895
-0.13900033 0.06271244 0.903228
-0.29757166 0.037626147 0.98580444
-0.22831461 -0.031812318 0.79634154
-0.28308538 0.045816045 0.71030915
-0.13705955 0.091827 0.70718503
-0.17711496 -0.070169486 0.8371213
-0.055787757 -0.008734271 0.7032447
-0.20335627 -0.023177922 0.63478476
-0.12981667 0.046997596 0.70521307
-0.17955762 -0.036548402 0.71572596
-0.21080087 0.07024019 0.8212321
-0.14354362 0.09066376 0.77936953
-0.1975822 0.06525092 0.8355233
0.026306681 0.07234527 0.66507804
-0.044260632 0.06516602 0.7702418
-0.3454384 0.039028414 0.9113884
-0.05780417 -0.22013368 1.0224082
-0.13482752 0.06657004 0.8428998
0.13134621 -0.031046407 0.6983765
-0.35263532 -0.045326166 0.79506683
-0.31089193 0.019659694 0.8586957
-0.28047445 0.09836936 0.79830116
-0.014757659 0.00040139677 0.7339077
-0.06341153 0.095333174 0.729448
-0.13741663 0.027147401 1.0312241
0.03619387 -0.018289473 0.6951508
0.07044768 0.03798914 0.7529888
-0.23201926 -0.034960955 0.7420178
-0.17525226 0.08327649 0.8381559
-0.26397556 0.0014901897 0.85201335
-0.04081519 0.011268462 0.7054713
-0.2592919 -0.010081172 0.76949275
0.05563524 0.045136582 0.7372515
-0.059075393 0.1099485 0.78945565
-0.33518386 0.086171456 0.8562824
-0.09337861 -0.03008296 0.79504544
0.0026102508 -0.018843912 0.7244926
-0.33460334 0.04346514 0.84681416
-0.056139164 0.08207724 0.84455997
-0.31240204 -0.06469093 0.7296217
-0.009094102 0.040527564 0.6423192
-0.0644468 0.09995646 0.63893276
-0.12611882 0.0574717 0.64814395
-0.1622794 -0.013254794 0.7281289
-0.09231534 0.051761106 0.9455746
-0.028743621 0.0094340425 0.6421609
-0.29819432 0.030638544 0.8145125
-0.183542 -0.064928465 0.8015774
-0.08608456 0.13668764 0.5268626
-0.26876828 -0.0641069 0.8578099
-0.048988033 0.032369398 0.65870583
0.121648006 -0.08535205 0.8937426
-0.14002702 -0.05360037 0.7937919
-0.21267693 -0.031721905 0.73232293
0.058305778 -0.08775214 0.68606716
-0.013562465 0.053182468 0.7204618
-0.36277625 0.05847414 0.7570588
-0.24276845 -0.01792376 0.8084139
-0.18625234 0.051492684 0.78752255
-0.025053069 0.028850397 0.6729052
-0.34745467 0.06634595 0.9352539
-0.07366466 0.042616695 0.69168895
-0.0008597382 0.08943989 0.7755908
-0.14632064 -0.032766093 0.71003413
0.027821537 0.011960272 0.7185994
-0.082892835 -0.03158265 0.67269415
-0.00020552319 -0.004927576 0.7547264
-0.056624066 0.025012812 0.68814385
-0.09864881 0.07931148 0.6873338
-0.034171622 -0.0017046256 0.64683074
0.10882972 0.09673731 0.63967377
-0.09710351 0.0726439 0.7220862
-0.2954836 -0.027855335 0.97060114
-0.022378493 0.11301204 0.6556356
-0.2566626 -0.014094152 0.7832098
-0.10946663 0.030731237 0.82459915
-0.19113527 0.07330039 0.7940216
0.06761302 0.069475435 0.72240055
0.041549277 0.0850142 0.70861655
0.07585606 -0.0151624065 0.68731904
0.089378536 -0.0032261028 0.79233766
-0.2596073 -0.113308474 0.7924742
-0.058799844 0.073934376 0.7160306
0.13174164 0.027467208 0.7489059
-0.29421693 -0.06905981 0.94423467
-0.096230105 0.077447444 0.7070643
-0.067574024 0.047475368 0.79304695
-0.2450725 -0.028726062 0.7424433
-0.011450631 0.0011360885 0.7185533
-0.026722804 0.0043114694 0.6443776
-0.029296473 -0.047161657 0.7155597
-0.0072597764 0.035400454 0.61257744
-0.0096801445 -0.020518366 0.62738705
-0.034739293 -0.013914161 0.7833827
-0.29092452 0.033299647 0.715892
-0.23800974 0.074163705 0.838744
-0.06880052 0.059656244 0.7489128
-0.15347849 0.068496756 0.667528
-0.32063243 -0.038474604 0.8039144
-0.18799853 -0.08839326 0.7320559
-0.12268855 0.13131078 0.9591485
-0.07845059 0.06261093 0.7330613
0.09058469 0.07342155 0.7050043
-0.028874306 0.11831904 0.8418819
-0.25300297 -0.029053766 0.76893216
-0.37314433 -0.05738754 0.70254934
-0.22843553 0.08557701 0.6639234
-0.015534693 0.021398693 0.63768166
-0.26969177 -0.075827025 0.8114719
-0.2231487 -0.0025267515 0.83693665
-0.14371286 -0.045687605 0.68991786
0.01693715 -0.04759524 0.6994259
-0.06557425 -0.022671482 0.7081214
-0.3154703 0.14781281 0.9427325
-0.042542942 0.11557092 0.7580262
0.008818554 0.028405005 0.7228478
-0.124535784 0.14703782 0.839317
-0.115914 0.032564774 0.73201466
-0.19045381 0.05647065 0.7694616
-0.02759268 -0.0010452517 0.82456
-0.10508869 -0.06264045 0.7271713
-0.08734545 -0.12588558 0.6720873
-0.42716053 -0.02381621 0.71104366
-0.30350292 -0.11093471 0.8822482
-0.06257378 0.06039795 0.70012176
-0.25332582 -0.05517981 0.7781439
-0.02190246 0.083694674 0.69463074
0.0641192 0.0103440685 0.7165666
-0.012831116 -0.03996949 0.6543137
0.010540002 -0.06623777 0.6846805
-0.014704314 0.008951271 0.66873044
-0.23345277 -0.016274525 0.688426
-0.43295118 -0.0528529 0.8181596
-0.31806445 -0.120708935 0.7580325
-0.009748369 -0.069869354 0.6103752
-0.03398771 -0.0134713985 0.7517083
-0.2834651 -0.030745164 0.7962139
-0.22004965 0.057591088 0.94937915
-0.040492028 0.11107008 0.73829997
-0.04098085 0.041104306 0.7235725
-0.04567236 -0.031587526 0.87701404
0.023163725 -0.047380954 0.76130503
-0.31437042 -0.00873317 0.7603603
0.00057759974 -0.023847347 0.7688361
-0.20486265 0.006257722 0.76490045
-0.063431285 -0.025513634 0.6101557
-0.13209203 0.0395654 0.78997475
-0.29267982 -0.0852731 0.7982154
0.02775189 0.11729179 0.7586554
-0.108533055 0.09100265 0.8476376
0.04627391 0.09675717 0.58275723
-0.12715955 0.061911285 0.967864
-0.19516416 -0.08698527 0.9154942
-0.13423024 0.08082684 0.8795912
-0.13071042 0.061049465 0.59406376
-0.20402117 0.06139992 0.9942894
-0.30098617 0.024387525 0.83399415
-0.18815614 0.041698255 0.85817295
-0.26708925 -0.030872583 0.81045467
0.03967914 0.0012882883 0.6585859
-0.071317606 0.08891831 0.6975052
-0.30132467 -0.00046288106 0.74925137
0.17662318 -0.032342248 0.5886926
0.031066103 -0.0032921853 0.68401384
-0.31334698 -0.027287895 0.77753454
-0.021670759 0.021593597 0.6971539
-0.17553143 -0.06522209 0.8505193
-0.15816219 0.08734227 0.9280772
-0.17333181 0.043918062 0.6972213
-0.33086008 0.02604941 0.9236913
-0.11814937 0.012360102 0.6737406
-0.31615552 0.061867464 0.82357025
-0.3207888 -0.048077654 0.7498585
-0.121874176 0.06771975 0.7167631
-0.26434416 0.14309056 0.8384258
-0.31578645 -0.012161996 0.8245036
-0.3747303 -0.0024665277 0.8350937
-0.0724727 -0.07069532 0.6987475
-0.24541993 -0.10707302 0.77795535
0.06762005 -0.059263676 0.73923737
-0.099969834 0.10067246 0.7762984
0.07605625 0.06758727 0.5928545
-0.3689228 -0.1778932 0.87264544
-0.18973362 0.010799011 0.7507196
-0.09914043 -0.15367576 0.7878868
-0.08169508 0.047868468 0.776804
-0.12793837 -0.09978374 0.7878176
-0.21280657 -0.01764481 0.76962084
-0.2403504 -0.08036931 0.8122816
-0.084326915 0.08019713 0.7674146
0.010979136 0.071345545 0.6184509
-0.24456635 -0.019887883 0.896994
0.012531671 -0.028054541 0.9034348
-0.0059259203 0.06628354 0.70095176
-0.12725754 -0.04014732 0.6717908
-0.09931582 -0.007828413 0.65762085
-0.34361184 -0.074245684 0.80993295
0.04814048 0.017379524 0.6873162
-0.24926524 0.07396002 0.78481656
-0.30192855 -0.06857328 0.807601
-0.20209707 0.06626281 0.75269854
-0.15322916 -0.006574927 0.96816146
-0.21353608 -0.15741411 0.8444721
-0.12538311 -0.03648759 0.7106781
-0.28084314 -0.0049440595 0.8500269
-0.1267929 -0.0067874226 0.66114
-0.12760241 0.02493504 0.78336364
-0.012251105 0.043815456 0.77210975
-0.09313389 0.0036930204 0.72405005
-0.06134832 0.016483929 0.73925567
0.10529702 0.08752624 0.72526526
-0.37216136 -0.07001207 0.79048115
-0.00031804945 -0.010008395 0.6369698
-0.19108024 0.031989135 0.7345492
-0.26615158 0.07256094 0.7782432
-0.17950954 -0.12480445 0.939258
0.08056383 -0.0017859596 0.63870025
-0.20549165 0.008734345 0.7292345
-0.16703637 0.06093719 0.8709032
-0.22110824 0.009602451 0.78450066
-0.19657266 -0.10901546 0.7739554
-0.19573358 -0.008852306 0.70304376
-0.10790855 0.021959256 0.7003419
-0.31748617 -0.02216216 0.7798465
-0.020137256 0.060540617 0.6453542
-0.083590604 -0.073245615 0.78229123
-0.22946355 -0.13311109 0.7497644
-0.29047677 0.04178503 0.87860984
-0.06825148 -0.038171843 1.0810796
0.16848311 0.044995125 0.6425574
-0.045557242 -0.04891627 0.7477109
-0.24556392 -0.073986314 0.7342345
-0.07596412 0.059029344 0.87565875
-0.1988358 0.09103864 0.8991991
0.004597543 0.04724026 0.661253
-0.20726359 0.0489632 0.7796088
-0.086440995 0.03173329 0.80014426
-0.36103672 0.034616265 0.7581964
-0.007906582 0.079936385 0.6281973
-0.106210046 -0.013263057 0.725696
0.023301356 0.040083583 0.67009073
0.014326096 -0.061013862 0.69228184
-0.31765962 0.033908922 0.73907954
-0.17460048 -0.05118467 0.73663014
-0.26453057 -0.0024109809 0.8298105
-0.28736722 -0.024823977 0.76575243
-0.27925837 0.04915664 0.810644
-0.02482701 0.0779227 0.76067185
-0.04998861 -0.08015323 0.68122774
-0.31567273 -0.06383566 0.79303384
-0.10931806 -0.070294224 0.76535606
0.13420315 0.09149604 0.67952335
-0.281158 -0.110992245 0.82477283
-0.023799766 0.024533426 0.82897395
-0.0069515374 0.016055578 0.93183714
-0.21558799 -0.021823378 0.665953
-0.1784476 -0.020810748 0.6172373
-0.01826391 0.12884872 0.744457
-0.37706605 -0.04546899 0.8743617
-0.32678813 -0.0747772 0.80964226
-0.20642449 -0.03051051 0.7688078
0.04129886 0.027642287 0.6601402
-0.24696189 0.034555648 0.79806674
0.080357105 0.05022147 0.7084891
-0.06519583 0.09172739 0.62331194
-0.19304492 0.04848401 0.83662206
0.0122233685 0.00013537984 0.7176026
-0.18768634 0.090703845 1.0194919
-0.018063439 -0.03710034 0.6777127
-0.32364643 0.09669525 0.8535437
-0.017549714 -0.060348365 0.62552553
0.01941851 0.06789143 0.70684916
-0.079354614 -0.014927204 0.74460316
-0.21410465 0.066887185 0.6755236
-0.19376503 -0.10828421 0.8139235
-0.015090328 0.087663755 0.71715933
-0.2599565 -0.063425146 0.782994
-0.20310873 -0.07401852 0.80775404
-0.15303943 0.053063925 0.7496936
0.055486254 0.016546465 0.6906022
-0.31667852 -0.045628555 0.8287692
-0.24869044 -0.018855289 0.70123786
-0.12735502 -0.035218213 0.7484084
-0.2948351 -0.074730754 0.80754685
0.09412534 0.040826894 0.7047804
-0.23664619 0.08098456 0.65648067
-0.15238154 -0.030931648 0.7288755
0.03513305 0.009315246 0.6742125
-0.2730048 -0.06121625 0.7779654
-0.3320847 -0.006217938 0.78920215
-0.25162435 0.019491708 0.65024626
-0.2218632 0.09811339 0.5890989
-0.24893026 0.061754033 0.7050181
-0.30819187 0.10350394 0.7473909
-0.35652843 -0.05824938 0.87320507
-0.034686033 0.0743912 0.6704364
-0.29087275 0.066335596 0.9940451
0.049318172 0.03301951 0.70120645
-0.22293699 0.08784515 0.7540844
