ply
format ascii 1.0
element vertex 1393
property float x
property float y
property float z
end_header
-0.17432788 -0.08931851 0.8002969
-0.3477206 -0.0029429065 0.83595407
-0.082626745 0.022972625 0.7097698
0.10457971 0.037800625 0.84721285
-0.18468131 -0.097625054 0.78955346
-0.06078618 -0.0030629777 0.693827
0.055628818 0.0028579799 0.67984354
0.005307428 0.050890915 0.7879878
-0.31788072 0.028420288 0.90065575
-0.24917385 0.034475252 0.8112807
-0.26185402 0.0019090308 0.9053192
-0.12851076 0.06733209 0.8928492
-0.24514952 -0.053607814 0.7792667
-0.3137905 -0.04751518 0.86825716
-0.30712858 -0.030070063 0.7973893
-0.2675458 0.07754682 0.95613676
-0.21863131 -0.08187283 0.7611863
-0.20490904 -0.08044322 0.78076965
-0.09279695 0.08386335 0.61181253
-0.29542992 -0.08575884 0.8850147
-0.024607321 -0.05134795 0.7011654
-0.03234678 0.06212708 0.7382692
-0.25983766 0.0067870305 0.7986689
0.004766041 0.030087631 0.8000746
-0.14730556 0.019612417 0.78185374
-0.14780195 0.09506145 0.9492794
-0.15240839 -0.03757543 0.8154262
-0.14759763 -0.0629499 0.7745123
-0.19431004 0.0070285355 0.70223546
-0.003934628 -0.020541718 0.777218
-0.28900343 -0.027303947 0.79386175
-0.039438672 -0.012799369 0.67403305
-0.11408581 0.028276334 0.7647155
-0.20314406 0.075206414 0.7809626
-0.12509473 0.00011958042 0.7226846
0.07777574 0.045930836 0.680617
0.041309636 0.06058269 0.7370134
-0.04113877 0.077128045 0.7500928
-0.2614324 0.0039974656 1.0085688
-0.15652183 -0.048762135 0.7464438
-0.31090367 -0.002364731 0.9322208
-0.21648453 -0.017810302 0.7985074
-0.13061959 -0.00826384 0.7198407
-0.048852414 0.0326289 0.6874871
-0.08284521 0.026121337 0.73966885
-0.23982981 -0.08263064 0.7914727
-0.1319659 0.09738939 0.99328226
-0.06886644 0.015199745 0.6917155
-0.096581936 0.044422932 0.7037672
0.19020925 0.0031485385 0.6821245
-0.022628726 -0.077449664 0.72491246
-0.24160782 -0.07245183 0.81171614
-0.045237135 0.042012315 0.9088521
-0.14109808 -0.016492203 0.70229983
-0.10030154 0.039234776 0.8480818
-0.018723454 0.028434526 0.7095433
-0.07909644 0.025610607 0.8661554
-0.10672797 0.00014792592 0.7243081
-0.2561759 -0.082718745 0.8167455
0.12909846 0.0028402302 0.7758271
-0.023038702 0.038049158 0.71418005
-0.032396812 -0.009321095 0.73287994
0.01598676 0.0066570053 0.799827
-0.27219668 -0.036347765 0.78706783
-0.039114922 0.13774337 0.6906254
-0.13956906 0.00013373047 0.745266
-0.027273767 0.051183604 0.7117966
-0.24894519 -0.11257209 0.86807126
-0.024800198 0.037608165 0.8206117
-0.23559651 -0.03557638 0.7713657
-0.046777647 0.03448167 0.6825162
-0.20576425 0.038439743 0.81607485
-0.24525078 -0.031104803 0.80992484
-0.26505896 0.012880029 0.8321903
-0.14700606 0.059891164 0.78533363
-0.16866948 -0.007820703 0.7388186
0.049006872 -0.015924461 0.73644394
-0.016647562 0.048374508 0.7788502
-0.2039828 0.037925452 0.95811
-0.07119841 0.093478724 0.65764284
-0.18864252 -0.11163191 0.850272
-0.19837429 -0.007637839 0.7538456
-0.28060132 -0.0681252 0.81899726
-0.007310559 0.009444311 0.740318
0.12997533 0.0023907102 0.6983414
-0.058230378 -0.0014994498 0.77813315
-0.2100239 -0.080901586 0.8045252
-0.08624471 0.06313095 0.84241086
-0.021683851 0.04826361 0.719877
0.0484421 -0.007453855 0.6973349
-0.076078475 0.010675331 0.72435343
-0.32527536 -0.01664019 0.88477814
-0.15324363 -0.072367184 0.7617325
-0.252144 -0.13181846 0.8954836
-0.15746243 -0.025873946 0.7720192
-0.12079263 0.048673738 0.8268455
-0.0703534 0.089982145 0.9628514
-0.23181024 -0.11512263 0.8419594
-0.03354463 0.035496984 0.7153448
-0.17217517 0.0116618415 0.7683146
-0.16318783 -0.03169184 0.74933463
-0.084717765 0.012436493 0.9410707
-0.14062637 -0.032134008 0.7520795
0.024196925 0.08621068 0.7932452
-0.1235927 0.015583024 0.9987446
0.09133082 0.051937208 0.8059263
0.004003968 0.031546175 0.7596561
0.09645762 0.040172715 0.77099526
-0.20577633 -0.037844475 0.8053233
0.036613148 0.014278229 0.8394975
-0.25691625 0.04444176 0.8039197
0.042528503 -0.0063608983 0.8883369
0.011294296 -0.05832746 0.68476784
-0.18048179 -0.024222404 0.74409336
-0.24954306 0.0073447954 0.81092066
0.0224495 -0.02968341 0.74635065
-0.1662644 -0.047555573 0.77886254
-0.032885298 0.03219793 0.982108
-0.12988149 -0.049365394 0.72540724
-0.097466275 0.007833198 0.6948254
-0.0015872419 0.07156115 0.7150641
-0.12883645 0.041103616 0.9495426
-0.212845 0.04044254 0.80925506
-0.21799819 0.058943793 0.96383274
-0.1281259 0.09714874 0.9100251
-0.08033481 -0.0312313 0.7483276
0.039929055 0.08620846 0.8359058
-0.08663431 0.013881731 0.97646064
-0.13348663 0.069846876 0.94531256
-0.26873845 0.025450926 0.87533236
-0.20838307 0.11578736 0.88975114
0.033223152 -0.027627079 0.8203087
-0.31788895 -0.08427335 0.7936115
-0.14351268 0.0612608 0.901429
-0.10068484 -0.027032482 0.7497451
0.006599376 0.012326822 0.7141131
0.0077622877 -0.014211625 0.6640097
-0.058210343 0.06484865 0.708022
-0.24401635 -0.044912554 0.7811365
-0.28604406 -0.1119623 0.8732473
-0.24849448 0.025629934 0.7384691
-0.21594423 0.029264342 0.766308
0.08510289 0.0050587635 0.72934115
0.010265207 -0.0066190613 0.72781634
-0.26005852 -0.05529909 0.8478553
-0.22465222 -0.0831883 0.7945948
-0.07246364 0.08611924 0.965282
-0.13942099 0.00644273 0.6934003
0.029009752 0.0005551451 0.7464844
0.035365433 0.08730031 0.8887191
0.05812774 -0.004734434 0.7595363
-0.33297184 0.016922573 0.8585301
0.04745245 0.03489006 0.74077255
-0.1754154 -0.027080132 0.72411406
-0.06419335 0.040435866 0.81264055
-0.21359378 0.05264641 0.7693246
-0.22593568 -0.07119773 0.83664036
-0.13651645 0.006278881 0.7483788
-0.17810936 0.020484041 0.76009053
-0.047584374 -0.044070136 0.7140432
-0.07917526 0.046741087 0.71674013
-0.2115073 -0.0011090192 0.76388466
-0.062497847 0.035877228 0.7986619
-0.07246795 0.00028966737 0.7309871
-0.20300987 0.007079834 0.7659722
-0.006188747 0.07703692 0.7564841
-0.12750013 -0.051682662 0.7714035
0.060516443 0.015036585 0.7495614
-0.21217574 -0.05422501 0.82323486
0.093539804 -0.016371295 0.7119273
-0.23214214 0.008147479 0.7699868
-0.221997 0.023282344 0.84790915
-0.22865644 -0.009207131 0.80141234
-0.22470775 -0.07768736 0.8435728
0.031922832 0.027078778 0.73847437
-0.083123185 0.11659712 0.97013074
0.045768715 -0.019779734 0.70829606
-0.21571 -0.06347399 0.8378442
-0.08174099 0.06121376 0.62527615
0.11634502 0.052125797 0.6805249
-0.27726695 -0.05809411 0.8484968
-0.2522059 -0.008073373 0.775171
-0.15097664 -0.045176275 0.7428547
-0.2864627 0.014351156 0.8218502
-0.2595731 -0.08526535 0.7847824
-0.0996227 0.043095287 0.88192016
-0.2860679 0.03318879 0.8174681
-0.32193828 -0.027583566 0.80177397
-0.025232647 0.015764788 0.6689269
-0.21647243 0.06527906 0.91115886
-0.2304074 0.032369163 0.9042727
-0.25478473 0.04162879 0.87261355
-0.22907886 0.047610663 0.7689979
0.035045505 0.053617183 0.85601103
-0.28109995 -0.052305344 0.8485528
-0.22313246 0.03550669 0.98229295
-0.34025848 -0.010450792 0.81722814
-0.21899945 -0.0016022278 0.7744074
-0.10147842 -0.055971038 0.7311341
-0.011896977 -0.010907071 0.7126554
-0.041517783 0.0015993307 1.0058111
-0.25468385 -0.01668759 0.80554473
-0.076089375 0.03396427 0.6546437
-0.16357268 -0.099110164 0.74688697
-0.28891298 0.031966895 0.92311186
0.12581095 0.012913919 0.7297123
-0.30349728 0.005723584 0.7875463
0.0057348646 0.045095205 0.76115936
0.08211924 0.0022379856 0.73792773
-0.30866766 -0.010435436 0.87522376
-0.2278424 0.013981236 0.7420536
-0.29015607 -0.06466937 0.8177138
0.028996434 -0.014683144 0.80206263
-0.085023955 -0.006299556 0.67202586
0.024358353 -0.010417545 0.7103227
-0.31146497 0.0068379533 0.89034665
0.0066921324 0.043926373 0.8537239
-0.024627369 -0.0047877617 0.72467303
-0.23816402 0.0416169 0.77334815
-0.27716413 -0.054073308 0.79790294
-0.09143257 -0.01892863 1.0624936
-0.15514491 0.06470487 0.8316517
-0.16732799 -0.036705542 0.7520096
-0.19914417 -0.04004881 0.67759407
-0.29041553 -0.07212339 0.82222825
-0.0067894515 0.042648025 0.7318473
-0.07268805 0.04548288 0.9020722
-0.04263324 0.06532338 0.7163264
-0.08719707 -0.024158504 0.71382135
-0.2726673 -0.04342754 0.83288324
0.04304684 0.07312795 0.76202196
-0.09769516 0.018361099 0.81795645
-0.2535984 -0.050383218 0.7639325
-0.0781333 0.005055366 0.7873298
-0.17668791 0.06250267 0.7540324
0.042874247 -0.022611208 0.7196662
0.16321038 0.009561046 0.7260201
-0.23322526 -0.061467744 0.7604755
-0.23732576 -0.042406376 0.84082854
0.048094966 -0.011420937 0.7144762
-0.19063056 -0.030223543 0.71178865
-0.08091372 0.030271113 0.874353
0.15423372 -0.019878643 0.641682
-0.059123505 0.0053016115 0.6590726
0.061002497 -0.0028859144 0.7819264
-0.20729533 0.08788264 0.8976562
-0.17887321 -0.10268909 0.8084002
-0.022845069 0.024142379 0.7363544
-0.13650963 1.0726275e-05 0.6052069
-0.20261358 -0.08376412 0.807132
-0.077704884 0.045967918 0.68176216
-0.24296203 0.047475036 0.912321
-0.082507715 0.04474536 0.751832
-0.05729561 0.054477368 0.8271797
-0.19830158 0.0682711 0.9852755
-0.01578631 0.020342411 0.82688713
-0.015927939 -0.021734169 0.72148657
0.0944955 0.04825156 0.8085432
-0.071089275 0.027959026 0.620781
-0.30094066 -0.044140212 0.79034567
-0.30645832 -0.082863286 0.7768712
-0.27411613 0.0646004 0.7835338
-0.20327751 0.05850579 0.8577508
-0.13720948 0.0007077416 0.6907475
-0.12037203 -0.033668466 0.713802
-0.093376935 -0.0028432258 0.64630777
0.04885903 -0.041288212 0.67939484
0.083720416 0.034551095 0.7012975
-0.20313208 -0.010772809 0.8102164
-0.1636503 0.08762033 0.8271227
-0.28949127 0.040540997 0.94270086
-0.10520736 0.06996846 0.9374377
0.06330641 0.037160523 0.82767284
-0.32504004 0.015918653 0.89523137
0.051885363 0.04479027 0.76910317
-0.20982444 0.003242517 0.7844619
-0.27703708 -0.03175336 0.8120427
-0.1556705 -0.035101965 0.7147547
-0.042631652 -0.030225718 0.6878176
-0.17111073 -0.070439346 0.72328675
0.061035376 0.028085718 0.65167135
-0.24723016 -0.040752713 0.8240912
-0.27459344 -0.012639725 0.88152856
-0.2296715 -0.10613896 0.93076843
-0.1746863 -0.04555529 0.75307363
-0.085047156 0.057728134 0.8494577
-0.14022964 0.067846216 0.99316037
-0.23829305 0.014148194 0.84922194
-0.13852575 0.06082904 0.74371934
-0.22151248 -0.09819758 0.81389326
-0.19058622 -0.079012 0.8462596
-0.116811216 0.09150919 0.96704936
0.015952716 0.056826837 0.6989647
-0.009887429 0.04784012 0.6243719
-0.06359502 -0.0036782215 0.9107319
-0.009034192 -0.0010451245 0.7291859
0.017361566 0.061808683 0.74674535
-0.06599377 0.011684235 0.75955796
0.10809723 0.033675183 0.8576049
-0.01635949 0.010372791 0.71746594
0.09030349 0.034479175 0.6835981
-0.19194986 0.01518496 0.761393
0.068736956 0.007813435 0.7060499
-0.06309099 0.010179435 0.927303
-0.27289346 -0.010850712 0.7863042
-0.18072361 -0.069018334 0.7801496
-0.1485864 -0.07752569 0.72024846
-0.13792494 0.029928075 0.6550144
-0.28852978 0.0015690883 0.8591888
-0.014472432 0.08515809 0.7415561
-0.13422401 -0.015536671 0.74278235
-0.11200441 0.01936082 0.6767694
-0.10568024 -0.0045549227 0.7974321
-0.030179778 0.027764816 0.71961224
-0.30260655 0.004288414 0.7722035
0.025427556 -0.04354428 0.899353
-0.15268347 -0.089364 0.7596625
0.08115193 0.003148045 0.6052711
-0.28727055 -0.03613742 0.73652834
0.030281736 0.00550294 0.8908012
0.040665876 -0.0044866046 0.7165211
-0.081165195 0.030889712 0.7182857
-0.2092537 -0.013467438 0.73945284
-0.13453785 -0.08752263 0.72868025
-0.03741326 0.046589818 0.70963633
0.007572752 0.056954183 0.91441005
0.026020162 -0.049046658 0.7263563
-0.22254433 0.05551105 0.89766914
-0.20109186 0.052699197 0.8632692
-0.29425028 -0.04040789 0.8168218
-0.19644937 -0.025047708 0.717047
-0.07751514 -0.005554016 0.6789846
0.034896705 0.06771526 0.75198877
-0.14382926 0.011479133 0.76045525
0.028338011 0.0869157 0.7374931
-0.24889763 -0.07827293 0.8038661
-0.08873912 0.015112071 0.72587186
-0.16896002 0.03222807 0.7399945
-0.255792 0.042719595 0.7104915
-0.16248554 0.0077510756 0.6906843
-0.22149779 0.051642183 0.85668737
-0.21628581 0.07759653 0.90168136
0.06066079 0.0060526626 0.74129796
0.11969868 0.06918167 0.8161109
0.061297886 0.011484394 0.71729624
-0.20041831 -0.041654963 0.77755296
0.02122629 0.051472697 0.7955153
0.024104986 0.041449435 0.7354812
-0.17338128 -0.08610726 0.81392074
-0.24269879 -0.0199143 0.77240825
-0.24332474 0.03507582 0.90429157
0.112617284 -0.019546948 0.67356694
-0.15796089 -0.08838413 0.807983
-0.15324867 0.07589555 0.77094483
-0.035515923 0.019624984 0.9991409
-0.1584848 -0.062259097 0.7486238
-0.26619056 -0.022151751 0.7299845
-0.014613087 0.05689725 0.79920244
-0.00082862563 0.035623662 0.7333026
-0.14758806 -0.050389417 0.7456542
0.00062709954 0.0035883267 0.701712
-0.2513459 0.027243292 0.84614116
-0.115594864 0.06980465 0.9086314
-0.01799935 0.04306769 0.8324423
-0.077947974 -0.032390375 0.75322163
-0.26111987 -0.019352933 0.8112075
-0.1692022 -0.077863276 0.8873905
-0.13390402 -0.070988506 0.7804239
-0.13270412 0.0524067 0.82441443
-0.30299473 0.006550515 0.86397886
-0.16749085 -0.023169028 0.69873804
-0.021713665 -8.511031e-05 0.8469779
-0.0827573 0.07807293 1.0071561
-0.046827335 -0.050937615 0.7317661
-0.11076389 -0.039067395 0.71030575
-0.09037203 -0.011813986 0.75108206
-0.21845417 0.0864863 0.7844474
0.0027011917 0.05547086 0.8444934
-0.03907878 -0.008057779 0.7232272
-0.11429271 0.017562645 0.76228654
0.035863284 0.06575819 0.68893695
-0.14591967 -0.02230934 0.7164024
-0.2569742 0.05852523 0.8496038
-0.20577893 0.08643854 0.8563806
-0.27343476 0.013775852 0.86891264
-0.10482523 0.04376893 0.9060713
-0.1766247 0.021194462 0.6572464
-0.19621237 0.031187441 0.8283554
-0.0807859 -0.025547415 0.70682615
-0.063086 0.07747339 0.9064769
-0.17023228 -0.047065828 0.73327
-0.20498775 -0.009881692 0.75422823
-0.194574 0.052751467 0.8639589
-0.078475446 -0.038743727 0.7190619
-0.13513646 -0.0858921 0.75996333
-0.14355052 0.032685563 0.80926883
-0.2638567 0.042380713 0.83437777
-0.053498425 0.03452675 0.702434
-0.22461665 -0.030326804 0.7604192
-0.06814598 0.03607475 0.6200658
-0.16080245 -0.008913044 0.8599813
-0.21617077 0.089055724 0.8342618
-0.14740779 -0.0055345455 0.74459493
-0.044750903 -0.03609955 0.66408294
-0.036177654 0.030768873 0.6794671
-0.29768476 0.0035924772 0.8604346
-0.18277772 -0.10199991 0.8487368
-0.2212815 0.013321802 0.757481
-0.28153718 0.020557454 0.8862611
-0.09697858 -0.03792512 1.038139
-0.030961301 0.041103527 0.68802047
-0.10724536 0.020846598 0.72183233
-0.1237575 -0.052981544 0.7730668
-0.11664363 0.042407908 0.7591989
-0.34598 -0.067027874 0.836613
0.15741427 0.029160768 0.77510446
-0.19597143 -0.061395764 0.8554152
0.05611629 0.024310276 0.710972
-0.13841301 -0.018197244 0.691278
-0.024567252 0.041238103 0.7139498
-0.15973099 -0.01982813 0.7362465
-0.10428818 -0.044546008 0.6950271
-0.052387968 0.034860063 0.9751052
0.074727416 -0.04481296 0.67329645
-0.2462051 -0.050615724 0.7984579
-0.14260088 0.07117564 0.66013587
-0.23753227 -0.025967747 0.76005024
-0.27025396 -0.06707964 0.85268223
0.023949916 0.033626433 0.7260935
0.058655646 0.046726603 0.68105984
-0.18442771 0.0791708 0.89161706
0.09512992 -0.03779247 0.71141654
-0.21475403 0.0073761167 0.8516985
-0.065222934 0.013228724 0.73784626
-0.12177742 0.019694567 0.7712016
0.010734951 -0.020864684 0.7248766
-0.16448197 0.05437103 0.8286831
-0.28552267 -0.05036087 0.7778134
-0.010028224 0.0028847554 0.6796777
-0.1620103 0.029898394 0.7904803
-0.2342355 -0.04287272 0.8074947
0.019944744 0.027664555 0.70788383
-0.17419112 0.083397254 0.8457276
-0.30642873 -0.017490372 0.7738157
-0.2029023 0.0970351 0.95941776
-0.0744364 -0.0006453694 0.7353408
-0.25358266 0.046625182 0.85124344
-0.07956319 0.068936184 0.74337125
-0.05842312 0.039724268 0.80415446
0.045417476 -0.016875006 0.7722705
-0.1009455 0.057862382 0.7704717
-0.1305998 -0.03050829 0.7032944
-0.09639668 0.03316797 0.83307654
-0.27123845 0.031854223 0.8223485
-0.2617941 -0.08733922 0.89466804
-0.1628072 0.021835988 0.7380747
-0.27195233 0.05252879 0.99178344
-0.17928384 0.039445423 0.7839034
-0.1788635 0.012945784 0.7938896
-0.14542475 -0.08622076 0.78715944
-0.3335535 -0.015841093 0.8437322
-0.00833546 0.024960931 0.6816799
-0.015372185 -0.013093188 0.70678544
0.05133185 -0.044655155 0.72802824
-0.16430907 0.042868584 0.8107591
-0.24512072 -0.047646616 0.8132148
-0.12838416 0.12571542 0.9575385
-0.05220052 -0.049342897 0.698092
0.028514782 0.04870769 0.7078721
-0.10907751 -0.014704915 0.72158223
-0.1344759 0.102701634 0.8669955
-0.09081649 0.044744395 0.8008352
-0.17069505 0.061716303 0.8142006
-0.29918274 0.035908278 0.8465633
0.094337925 -0.00081928493 0.7352595
-0.036400948 0.08667 0.72106254
0.02342758 0.021402437 0.6955568
-0.28084466 0.03724227 0.89407754
0.10165842 -0.020855868 0.7075865
-0.27980983 0.046840206 0.8837869
-0.16983853 0.045319725 0.7424
-0.12102447 0.00090609025 0.6667219
-0.28295618 0.056373917 0.88302165
-0.13234404 0.020588197 0.7457126
-0.19050305 0.10190012 0.9347289
-0.031245867 0.024584472 0.6950311
-0.2430078 0.03156904 0.77540857
-0.26741475 -0.0802328 0.84742165
-0.22920696 0.008715962 0.80900735
-0.04976372 0.10067013 0.8551471
-0.23957941 0.06297837 0.9616175
0.034374192 0.04379841 0.63276935
-0.23398064 -0.003436149 0.7852189
-0.02451248 0.019474182 0.6965475
0.0077456217 -0.0017337669 0.72594273
-0.21389838 0.0014738487 0.69786316
-0.21898977 0.103270434 0.9263557
0.0036853724 0.03387391 0.73675716
-0.17298785 0.014165599 0.7825791
-0.09843654 -0.062141553 0.67631733
-0.06782226 0.01173224 0.69356555
-0.03120161 0.058381695 0.6939979
-0.17878574 0.08346681 0.8800733
0.051548496 0.052209347 0.8609691
0.12934384 0.04171002 0.7780462
0.08153957 0.04986329 0.87249446
0.0035015068 0.041610382 0.7768691
-0.07557786 0.0016413988 0.7262439
-0.23905681 0.044833492 0.8594074
-0.14644024 0.07326404 0.8456077
-0.14073388 0.06358753 0.8077958
-0.007686873 0.004898112 0.7554513
-0.05619985 0.050742038 0.6666406
0.027579553 0.10745116 0.8321906
-0.064388625 0.013245742 0.69823855
0.117984876 -0.022784773 0.6526986
-0.19576307 -0.06906893 0.8402877
-0.055855986 -0.021084579 0.7155281
-0.09558948 -0.0504284 0.66613877
-0.0019784966 0.05468184 0.69756454
-0.038404386 0.093739465 0.69003755
-0.2921587 -0.038457558 0.8135289
0.030474674 0.09424983 0.82974005
-0.029036887 0.04004622 0.75239307
-0.026841735 -0.008610431 0.69867057
-0.1466561 0.040622156 0.771005
-0.0927515 0.04053915 0.7171882
-0.27790093 0.019581145 0.8752755
-0.030919544 -0.03923125 0.9302591
-0.08490491 0.06775854 0.6897369
-0.1692787 -5.3041615e-05 0.7447375
-0.30576003 -0.027705781 0.7757361
-0.27840167 -0.04490802 0.83742994
-0.26185808 -0.01433903 0.8333685
0.016975814 -0.016756035 0.785348
-0.054053076 0.050826386 0.8551176
-0.1862781 0.02976014 0.76020694
-0.17484032 0.017316703 0.80386066
-0.23352468 0.018077238 0.77244985
-0.014109284 0.03940776 0.7444913
-0.15374827 0.04183361 0.79802406
-0.07357353 0.020320361 0.77650815
-0.31371635 -0.060175102 0.8529549
-0.2806106 0.022331748 0.82690525
0.0013709646 0.01850109 0.68207586
-0.007802447 0.034087244 0.65973204
-0.047670044 -0.04511305 0.70964116
-0.047481593 -0.026551627 0.683395
-0.24271762 -0.015083768 0.80096656
-0.17254867 -0.082242 0.7501934
-0.10348833 0.038581334 0.7602943
-0.21364705 -0.07203694 0.8174719
-0.29593897 -0.061233602 0.8756096
-0.18813547 -0.08089637 0.78472126
-0.30469245 -0.023515362 0.8530398
-0.28022984 -0.04455813 0.7676698
-0.032079116 0.053349394 0.72291565
-0.062091213 -0.032179136 0.70761585
0.083688974 0.069907494 0.78548
-0.19479395 -0.04988798 0.7680304
-0.06396747 0.017167049 0.6893841
-0.083630025 -0.0008408653 0.6448014
-0.21238019 -0.05431082 0.77318585
-0.040884044 -0.01780137 0.7226532
-0.27989766 -0.03524799 0.8064897
-0.030000634 -0.039963618 0.6894795
-0.085452326 -0.016121432 0.8726838
0.06804809 0.0003598947 0.7123645
-0.18194811 0.023573594 1.0029112
-0.25182655 0.038477935 0.8065108
-0.030126259 0.023990765 0.71928483
-0.027172932 0.04255148 0.70268744
-0.17882895 -0.08724208 0.8245074
0.021145318 -0.002686958 0.69623023
-0.14554055 -0.08184254 0.7076955
-0.031322468 0.02588172 0.67162645
-0.30745682 -0.0042550005 0.9625289
-0.04081352 0.05464006 0.7374483
0.060368754 -0.011398379 0.7215105
-0.09983523 0.053364605 0.8874815
-0.28734946 0.031099662 0.9213762
-0.050205585 0.033472903 0.66593283
-0.10459963 0.0066285506 0.7372056
-0.20416166 -0.07244348 0.7696066
-0.15413803 0.0049749264 0.7300813
-0.2211034 0.041054297 0.77721786
-0.1569861 -0.09309759 0.80414265
-0.03461976 -0.0032864776 0.897951
-0.3093629 -0.07571803 0.8413313
-0.040485073 -0.06262809 0.6508336
0.028858086 0.04035992 0.87426794
-0.22889648 -0.05936453 0.79882103
-0.004728292 -0.026282873 0.7064484
-0.07129105 0.11177283 0.6957827
-0.28771538 -0.044597615 0.80552024
-0.27496308 0.033942662 0.8534154
-0.2352208 0.0012426345 0.7658976
-0.040682223 -0.020525273 0.64640796
-0.12501617 0.0118176285 0.75576293
-0.2403593 -0.015057297 0.81832725
0.0010244355 0.023390008 0.7550023
-0.06359254 0.02351352 0.7946733
-0.26062346 -0.028683743 0.8234752
-0.23982386 0.03434908 0.76405925
-0.32985616 8.477131e-06 0.8265058
-0.19562718 -0.009986412 0.770935
0.13315684 0.037378296 0.6615575
-0.19596052 0.0475509 0.8601298
-0.17576356 -0.012522763 0.7001465
-0.004349958 -0.019914757 0.7889913
-0.2294357 -0.0014917622 0.8114352
-0.20581248 -0.08596957 0.81160223
-0.11345411 -0.0018361337 0.6786355
-0.071872406 -0.03501627 0.68135464
-0.13752185 -0.044221804 0.7776503
-0.27414915 0.0063673197 0.776805
0.051849235 0.0052480195 0.7376126
-0.05011709 0.028703108 0.9555403
-0.2611682 0.06632054 0.8261987
0.016136983 -0.037937418 0.793155
0.045378674 0.0009339326 0.68222976
-0.21454152 0.061597265 0.90751183
-0.10573616 0.019053038 0.7125537
0.08014832 0.0438602 0.7619763
-0.11940737 -0.01085451 0.85648465
-0.25520533 0.017866787 0.8640952
0.061413188 0.00065641373 0.72373426
-0.10941494 -0.045608804 0.715394
-0.25738806 -0.08520381 0.7658532
-0.14781876 -0.048958346 0.7358004
0.06501393 0.018193742 0.7093757
0.004679339 0.012488607 0.68243325
0.009727056 0.056505654 0.72060513
-0.15652603 -0.09035622 0.7747672
-0.175895 0.023952825 0.8875377
-0.26798597 0.020440275 0.7832139
-0.023126468 0.06573197 0.7428354
-0.24664037 0.05677875 0.82562625
-0.03170697 0.07633034 0.74085486
-0.2046205 0.044595674 0.70773405
0.018189037 0.014939239 0.7297148
-0.21911763 -0.03509074 0.8198565
-0.22023758 0.10205078 0.87849313
-0.0036718869 0.0013532599 0.70284903
0.06842203 -0.0697694 0.7101314
-0.17514953 -0.0030878242 0.7597843
-0.25740996 0.028549986 0.7609239
-0.13934399 0.08244826 1.0229368
-0.26426 -0.06729743 0.7846529
-0.18687479 0.0053099548 0.74715775
-0.23779544 -0.08281432 0.8433642
-0.03592902 0.06565422 0.75410265
-0.05197504 -0.0017208357 0.67787343
-0.15077537 -0.06487635 0.78038436
-0.01700347 0.033283994 0.6440862
0.019284917 0.06741633 0.84047526
0.07765848 0.002478933 0.70310915
-0.0072869454 0.07016874 0.7060994
-0.27706853 -0.013238912 0.77245003
-0.2178238 -0.0050728065 0.7947203
-0.205742 -0.10325353 0.89948374
0.0051921145 0.06951136 0.7004045
-0.14769986 0.049780767 0.7823586
-0.18353903 -0.030878155 0.76968646
-0.043484595 0.047092196 0.87925255
-0.039197784 -0.027241973 0.7045395
-0.19892208 -0.061221357 0.8149289
-0.27769318 0.05526305 0.8119359
-0.1376512 -0.018881407 0.6981878
-0.14077339 -0.060235888 0.7243957
-0.08735072 0.038720123 0.88605416
-0.08175046 -0.049627457 0.68087435
-0.21300055 -0.06654203 0.869635
-0.07758161 0.028731406 0.7242578
-0.07258163 -0.03134253 0.9878517
-0.26267278 0.067671664 0.9440443
-0.08806201 0.0067615146 0.917646
-0.008571416 0.11570384 0.84570324
0.011339475 0.00513824 0.74855304
-0.28034124 -0.026498957 0.79697114
-0.048242845 0.003795628 0.6900728
-0.23370874 -0.027361188 0.7682514
-0.024369206 -0.05763262 0.687836
-0.16679637 0.07761772 0.89901304
-0.18423907 -0.08733936 0.7275192
-0.11635133 0.09857626 1.0550661
-0.021054478 -0.021655994 0.70793915
-0.2541021 -0.07556087 0.84217644
0.07807381 0.037342034 0.76109296
-0.23571274 -0.03394466 0.7962246
-0.20040122 -0.08558532 0.78671664
-0.1974742 -0.045952734 0.7925588
-0.26284736 -0.08234968 0.8389098
-0.23518991 -0.07552331 0.8716972
-0.07112845 -0.010007997 0.6526573
-0.22527279 0.11096622 0.98309624
-0.17840269 -0.04861054 0.78909266
-0.18672381 0.025290584 0.80103844
0.089529015 0.013057826 0.721061
-0.18133977 0.013031851 0.74624056
-0.0660203 0.031263605 0.7046453
0.11490072 -0.0028040237 0.7047116
-0.15488748 -0.0013344008 0.7396921
0.00189382 0.01778146 0.6843646
-0.16972902 -0.08277843 0.85522294
0.048350837 -0.022435613 0.9359455
-0.15391724 0.08270303 0.80603445
-0.045167495 0.04142903 0.6867533
-0.28691894 0.030459672 0.73525524
-0.097547494 0.043403845 0.78655386
0.10363017 0.06375526 0.86463034
0.16561107 0.0074939234 0.6807522
0.14558265 0.012625959 0.65534174
-0.24801588 -0.025932347 0.81498796
-0.18782125 0.030503372 0.75579613
0.07442179 0.030780895 0.69975173
-0.047005486 -0.0124608455 0.683819
0.06388554 0.039285142 0.7283602
-0.2665665 0.014120759 0.8724516
-0.08698842 0.08008763 0.9591332
-0.18412536 -0.023628915 0.81110716
-0.22987172 0.07670825 0.942701
-0.23661438 -0.08210668 0.9605074
-0.28640333 -0.039075024 0.8046606
-0.13543127 -0.007841233 0.7330673
0.037621275 0.04243437 0.65856045
0.013602314 -0.023989564 0.7219
-0.011178083 -0.0007266422 0.7132872
-0.13304847 0.07492606 0.6411945
0.07312647 -0.013962927 0.7521046
-0.05292264 0.016314879 0.74123
-0.29987818 0.060130443 0.9162266
-0.086072996 -0.05012731 0.704946
-0.024656516 -0.0266163 0.6945526
-0.27283764 0.067609295 0.9174011
0.034820173 -0.0138005335 0.7120052
0.01532455 0.06071444 0.75328916
-0.29192188 -0.066524304 0.854338
-0.088388264 -0.055952854 0.7076904
0.07370027 0.011736237 0.7337164
-0.095343664 -0.0054157516 0.81504637
-0.25338164 -0.038584713 0.777874
-0.19314271 0.0358599 0.8322792
-0.3276932 -0.09564658 0.8313224
-0.30712706 -0.08127088 0.8354831
-0.08063191 -0.057293408 0.73335975
-0.2514512 0.011199445 0.79210967
0.12768899 -0.009274065 0.711581
-0.15389258 -0.029160729 0.7359571
0.021737073 0.027269412 0.65359056
-0.1720452 0.009012345 0.7482639
-0.031522475 0.007950836 0.71884114
-0.08914115 -0.040071 0.7255378
-0.098506056 0.041148774 0.8065488
-0.078301005 -0.03218745 0.69067615
0.061988633 -0.031455643 0.7489156
-0.2470025 -0.017550264 0.8543944
-0.007914571 0.03325024 0.7314725
-0.19165337 -0.031375222 0.7303581
-0.2983314 -0.05774554 0.85130864
0.003677713 0.085086785 0.7429689
-0.24504404 -0.07373658 0.8084405
0.019467916 0.06562501 0.68847096
-0.22960004 0.024594426 0.772119
-0.2209876 -0.05155098 0.82423025
-0.20335177 -0.013865683 0.8085503
-0.1893258 -0.046637245 0.8336714
-0.2471828 0.015302157 0.7731632
-0.14925496 0.05909753 0.7811965
-0.2453773 -0.06880313 0.7474074
-0.13069005 0.028563458 0.77857697
-0.15856773 -0.07988156 0.75923955
0.0053609135 0.08422753 0.72034806
-0.24810417 -0.036714315 0.769213
-0.117160365 -0.056924805 0.73587364
-0.027744666 -0.037639536 0.7196384
-0.118654534 0.0338082 0.6488127
-0.25363225 0.06420601 0.9394871
-0.20492792 0.032006055 0.73840976
0.059061617 0.023351377 0.715931
-0.2055162 0.070473686 0.82220316
-0.11257998 -0.02892588 0.70525765
-0.2661891 -0.013470577 0.76933783
-0.11189309 -0.057538707 0.74673223
-0.08867379 0.023855 0.7903039
-0.07523223 0.069413416 0.7234627
-0.036864594 0.0028577722 0.7257826
0.015680004 0.017047692 0.6765196
-0.15545772 -0.045873553 0.7454956
-0.14215289 -0.092556976 0.6627152
0.02615985 0.020739164 0.7191792
-0.10547626 -0.018918797 0.7189759
-0.20077674 0.026214544 0.75761074
-0.13663238 0.0850649 0.82733035
-0.27149785 0.052799564 0.9494678
0.09233421 0.035669282 0.81661755
-0.25493845 0.07258939 0.9009284
0.13111724 0.09095052 0.747115
-0.2675598 -0.030946476 0.8398496
-0.11741447 0.016177863 0.82196164
-0.22465174 0.00016022101 0.7228411
-0.3022358 -0.05513963 0.8048503
-0.018146079 0.046305954 0.725265
-0.22582307 -0.06871438 0.83698374
0.03409872 0.075126484 0.7448411
-0.25817043 0.0023706723 0.84348637
-0.121021636 0.03274024 0.68914735
-0.0848499 0.032705914 0.8247398
-0.3072106 -0.052564513 0.8331448
-0.15338466 0.041425206 0.7517424
-0.14792079 0.006054227 0.7290503
-0.12019264 0.058588456 0.8058189
0.06869015 0.0619095 0.69315004
-0.22768646 0.10534132 1.0173318
-0.23743582 0.010492348 0.74922323
0.05551316 0.05413123 0.7286186
-0.1284368 0.0904025 0.9196701
-0.015167182 0.032457087 0.736827
0.04353543 0.08791336 0.7245823
-0.09253399 0.013006761 0.6907747
-0.269247 -0.11131575 0.8027139
-0.1799752 -0.08068996 0.7811776
-0.20305893 -0.03174102 0.772506
-0.037626833 0.019277524 0.69074786
-0.10098856 0.016917508 0.796326
-0.16579302 0.08738435 0.97373986
-0.17749518 -0.05480134 0.8156726
0.06522445 0.033711426 0.92184985
-0.29732186 -0.035349943 0.8573418
-0.1552557 -0.016479563 0.75616413
-0.29017383 -0.12526965 0.9137774
0.024402507 0.013038954 0.7621456
-0.1179027 -0.055958174 0.7115887
-0.06269125 0.08408203 0.80329615
-0.13281167 -0.017390499 0.6721587
-0.16759151 -0.012352657 0.73089117
-0.32653934 0.010032186 0.8966383
0.069377236 -0.020529212 0.779599
-0.115961686 -0.049456924 0.7438928
-0.25595346 -0.063346654 0.7949696
-0.26311716 -0.042181715 0.83445656
-0.088009536 0.064477466 0.69082767
-0.23990831 0.081676714 0.8828765
-0.17362136 0.047823787 0.72437423
-0.00034196762 0.05250544 0.765167
-0.17301773 0.109181784 0.87934864
-0.117178135 0.058236536 0.809643
0.009199999 0.030881569 0.72787327
-0.09082907 -0.011935737 0.7149983
-0.072104454 -0.07476857 0.7142024
-0.20302176 -0.012258094 0.8095285
-0.29381725 0.05746352 0.80771166
-0.22381572 -0.030505871 0.75723845
-0.17293373 0.05517094 0.7883351
0.09840141 0.04751568 0.7477242
-0.013079064 0.0171218 0.8234772
0.025030574 0.045685217 0.711251
-0.03025553 0.06735802 0.7549418
0.02920195 0.033298556 0.6806795
-0.008059588 0.034575827 0.7376707
-0.12764734 -0.0028527384 0.7808847
-0.16973293 0.10732438 0.9132339
-0.07529784 0.051642887 0.73458344
-0.20742282 -0.06584073 0.83140945
-0.12150306 0.021295972 0.8158183
0.0036885228 -0.051629916 0.72950894
-0.09409827 0.06701347 0.8275927
-0.104435965 -0.03907327 0.7016485
-0.20569947 0.02909811 0.699936
0.04211841 0.07806961 0.7384244
0.020613406 0.011812918 0.7334703
-0.08489463 0.019848624 0.6713291
-0.24339813 -0.09625085 0.84971493
-0.057758037 0.05713665 0.66340905
0.026141852 0.01945309 0.75631523
-0.15904832 -0.0015588198 0.73437846
-0.08008254 0.053306937 0.69922805
-0.19418907 -0.059639372 0.8487545
-0.20543328 0.05169486 0.84595025
-0.1982229 0.003070679 0.70423883
-0.16576332 0.050966777 0.8642892
-0.19594122 0.03383321 0.80144686
-0.2293234 0.04205478 0.7727799
-0.0016991941 -0.009024274 0.73804516
-0.2193309 -0.08473449 0.82312953
-0.09422815 0.056158625 0.8052709
-0.008469337 0.00095798133 0.7207634
-0.21775831 0.019886157 0.73883593
-0.24119465 -0.008151563 0.7920872
-0.2566214 -0.039289515 0.8119889
-0.23155361 -0.05276502 0.89016396
0.04317853 -0.07124955 0.719474
-0.22688603 0.08414004 0.8628974
0.025152957 0.049566854 0.641579
-0.27882847 0.05879279 1.0058763
-0.24834672 0.034359027 0.8179784
-0.31202945 -0.04769571 0.8564646
-0.17784177 -0.0038261511 0.7426156
-0.082568884 -0.04103822 0.74733865
-0.010670535 0.027557295 0.74787295
0.012350563 0.039022364 0.6738105
-0.23939718 -0.060446233 0.8180417
-0.20986512 -0.04248802 0.79583216
-0.31171227 -0.031561766 0.7726027
0.012568889 0.031144502 0.7025116
-0.22484261 -0.08361526 0.77975327
-0.0963861 -0.036883313 0.7215373
-0.25846267 0.07926226 0.7790638
-0.055999793 0.017449629 0.6766608
-0.21092509 0.03789811 0.8123812
0.05340684 -0.025426783 0.7546433
-0.29539436 -0.033204254 0.8662583
-0.2863772 0.034200277 0.8296123
0.12545931 0.025538731 0.7019147
0.018762954 0.05034599 0.80035526
-0.14333947 0.017856576 0.7843903
-0.055028394 -0.028129414 0.719097
-0.06453543 0.055066977 0.7552085
-0.08544631 0.049808238 0.8546829
0.009545145 0.031138906 0.71624374
-0.09803603 0.027726006 0.6918596
-0.18022384 -0.037437283 0.77184314
0.057834193 -0.039142303 0.7195778
-0.13778846 0.0389089 0.7621613
-0.02461902 0.026588408 0.67814827
-0.08192786 0.019115794 0.7320294
0.02218515 0.05100975 0.6962645
0.08237796 0.053103145 0.65437096
0.07071192 -0.0013562692 0.72906876
0.07386986 0.024131745 0.63175935
-0.0057145804 0.07705246 0.7437479
-0.22420125 -0.0051932475 0.78098136
-0.122331575 0.06462391 0.8843015
-0.20916814 0.06665993 0.9592864
-0.22742 -0.010883794 0.8163347
-0.21451846 0.04525866 0.7511273
-0.13464744 0.060475055 0.7509805
-0.18712248 -0.038326647 0.83629507
-0.017925806 -0.023017079 0.7244748
-0.16138543 -0.0105866445 0.6696539
-0.09936105 0.03872911 0.74604857
-0.16786027 -0.024165286 0.7363467
-0.18135977 0.056777306 0.82767236
-0.13875426 0.064699754 0.7834039
-0.172806 0.06495364 0.8562023
0.015438175 0.049302123 0.706874
-0.026657838 0.077374384 0.73413336
-0.30641687 0.039223224 0.91658646
-0.049680155 -0.085494354 0.9681619
-0.14581084 0.04872427 0.87751114
0.12008552 -0.030814657 0.7247133
-0.31577656 -0.040521406 0.85158277
-0.28944314 -0.006213109 0.8526475
-0.20006302 0.06613772 0.8124054
0.03731149 0.00047979923 0.73130304
-0.053297695 0.070239216 0.7343404
-0.2029264 -0.03247223 0.9684036
0.024568383 -0.0064420374 0.68614894
0.07023469 0.037250694 0.7748825
-0.1777891 -0.03895413 0.7817658
-0.15898603 0.055283956 0.82047904
-0.2233377 0.024956923 0.8585195
-0.008986557 0.018148523 0.69622266
-0.20222977 -0.0290091 0.7714908
0.07653461 0.043036215 0.7553322
-0.05127589 0.08031547 0.763301
-0.29144514 0.06536239 0.88159627
-0.09815035 -0.019171743 0.781228
-0.018198133 -0.024944156 0.7357995
-0.25586337 0.03721498 0.83288354
0.0077870274 0.07182742 0.84048533
-0.24193083 -0.038114194 0.7659383
-0.0013277293 0.019940918 0.68065786
-0.050048493 0.08189805 0.6814689
-0.034400664 0.03801705 0.7219842
-0.09407981 -0.0017892672 0.7406304
-0.097296216 0.057807796 0.9145015
0.030929867 0.024708997 0.71567416
-0.24390079 -0.0010939711 0.8200541
-0.20532419 -0.025000993 0.8071398
-0.03795563 0.11647127 0.62663305
-0.2597187 -0.05584912 0.88594586
-0.026863137 0.018450122 0.66280395
0.12955558 -0.03192694 0.8810999
-0.15785351 -0.060902946 0.8166897
-0.14616363 -0.030998096 0.73924714
0.06342068 -0.07938974 0.70676374
-0.017814405 0.037081502 0.7339618
-0.2599427 0.04209859 0.77542406
-0.20739737 -0.04187321 0.8084193
-0.17054395 0.0331859 0.80671453
-0.052953515 0.02076977 0.71185625
-0.29596716 0.06888347 0.9541645
-0.08549787 0.04462804 0.71616274
0.025193159 0.06304113 0.78868455
-0.12163569 -0.0073616183 0.75085765
0.012271945 0.020570219 0.7282174
-0.092125535 0.0067099384 0.73540705
0.023817282 0.021698635 0.7567893
-0.02754458 0.026143955 0.69499403
-0.042150557 0.054450225 0.7464372
-0.0080992915 -0.022846602 0.6904433
0.09695561 0.030117253 0.66387033
-0.07927321 0.049750157 0.7436485
-0.29744625 -0.0110106 0.9623311
-0.017365847 0.09134042 0.6857316
-0.19871387 -0.007924706 0.7899053
-0.09858233 0.043620184 0.88217527
-0.19130579 0.042281788 0.7944299
0.06900288 0.048368968 0.7531282
0.07528032 0.05601748 0.70594555
0.07453563 -0.011625478 0.7233012
0.09363091 0.011413038 0.7805209
-0.2131067 -0.07315672 0.7935879
0.02932357 0.049617223 0.7635613
0.1020172 0.03578567 0.77168727
-0.289448 -0.07182251 0.9231404
-0.03611496 0.04864622 0.7285534
-0.060305636 0.04105434 0.83104295
-0.23442602 -0.017976953 0.7878842
0.0071054874 0.027932342 0.71779156
-0.005827447 0.026139975 0.6791841
-0.022702798 -0.038682565 0.7228838
-0.034259655 0.049006555 0.67633545
-0.021314435 -0.0112553025 0.6877669
-0.038892835 0.016473603 0.81141436
-0.2392129 0.02213611 0.73899186
-0.21299933 0.06329089 0.8491936
-0.02988398 0.028632302 0.7474631
-0.11831177 0.068126984 0.6901962
-0.28697047 -0.038185537 0.82498604
-0.14966594 -0.069158025 0.752792
-0.13841718 0.11558389 0.9608817
-0.048920467 0.036856655 0.71408415
0.097738184 0.050966103 0.72567445
-0.08199022 0.09144051 0.87146926
-0.22814551 -0.010807838 0.80823505
-0.31615165 -0.060850285 0.77878225
-0.14440125 0.027013937 0.68383926
-9.732868e-05 1.34296715e-05 0.67734426
-0.19695595 -0.06788383 0.7937587
-0.17929421 -0.031145403 0.8263109
-0.12882838 -0.03680156 0.7168525
0.020005168 -0.025757765 0.7298283
-0.12198454 -0.014744066 0.75199366
-0.2760742 0.10749271 0.95065784
-0.00066068955 0.09005793 0.7344195
0.03764769 0.026516022 0.7354396
-0.11050647 0.10940955 0.84346336
-0.12509957 0.023592887 0.7475637
-0.15784875 0.061448786 0.8113861
0.023960093 0.02484162 0.83824605
-0.06326503 -0.04482272 0.7330656
-0.06880967 -0.06907514 0.7030612
-0.33884215 -0.03337407 0.74119794
-0.24465732 -0.10833656 0.8908501
-0.043640666 0.022295905 0.73072094
-0.24008259 -0.039212 0.81085604
-0.022567246 0.09327917 0.68023264
0.075203165 -0.0051143593 0.7360083
-0.009062779 -0.031242384 0.6620626
0.023850668 -0.029655267 0.71611017
0.023000281 0.020913769 0.6948764
-0.24440253 -0.023717133 0.7618716
-0.36376652 -0.05536962 0.8334284
-0.2831943 -0.0916961 0.7992224
0.019063817 -0.05106434 0.6751766
-0.044275843 -0.028332457 0.72573
-0.25055084 -0.016444594 0.7913216
-0.23526753 0.025573842 0.9374781
-0.04362163 0.08771862 0.7142573
-0.014680833 0.030678265 0.7593723
-0.0686049 0.023668779 0.91502523
0.034382164 -0.008585043 0.7880902
-0.26689923 -0.020562151 0.7851073
0.022118296 0.0032603096 0.8008935
-0.14893213 0.008707399 0.77053654
-0.027432922 0.01991371 0.6695679
-0.134812 0.025768884 0.7932472
-0.2064331 -0.06371422 0.77518404
0.020557955 0.088957995 0.74523854
-0.08582024 0.07497994 0.8762394
0.08786145 0.06544577 0.645063
-0.12590995 0.06670481 0.9470418
-0.21676114 -0.080285065 0.8995026
-0.11722895 0.06787618 0.8927046
-0.0919115 0.060085963 0.6317497
-0.21467987 0.058636453 1.0254246
-0.25428858 0.015618274 0.8452757
-0.15208115 0.048041947 0.8599917
-0.23575322 -0.04335731 0.84427834
0.06422645 -0.003831881 0.7045655
-0.07521969 0.07918565 0.68662983
-0.23156153 -0.018733518 0.7741244
0.1496419 0.012262687 0.6446941
0.039000567 -0.019278098 0.7100769
-0.29389107 -0.029911462 0.817327
0.028972097 0.016365733 0.74620134
-0.2095924 -0.0567647 0.84727216
-0.13188246 0.0667673 0.9340676
-0.1226913 0.007944994 0.72098565
-0.2683285 0.03432781 0.88364017
-0.12240167 -0.005548075 0.71590054
-0.29674038 0.03192507 0.86175144
-0.24237609 -0.048594255 0.767887
-0.09558772 0.046328336 0.7672872
-0.24268189 0.09327512 0.88014114
-0.2629521 -0.0032622872 0.8650899
-0.32542604 0.0129316915 0.8749912
-0.0059991768 -0.025905475 0.7258769
-0.1865125 -0.09996851 0.7996356
0.049741656 -0.04151095 0.73816586
-0.1292943 0.093345225 0.8576956
0.10186119 0.045491647 0.67133576
-0.3487866 -0.10508331 0.8860923
-0.16385087 0.0046614776 0.7571791
-0.08827578 -0.12599552 0.7946629
-0.084812835 0.05858188 0.79211223
-0.1630706 -0.08102651 0.81719697
-0.18057135 -0.028961679 0.75704
-0.25741273 -0.067272216 0.8384874
-0.044571217 0.07185916 0.76063895
0.026033213 0.0630852 0.6735284
-0.20419411 -0.04001419 0.89715093
0.046790365 0.012042292 0.8681594
-0.012150999 0.043322153 0.7282821
-0.10207152 -0.03371816 0.70951897
-0.0724384 -0.0042876955 0.681275
-0.2685186 -0.061572567 0.82311165
0.04035282 0.0039400063 0.7133882
-0.2202686 0.059587013 0.82271206
-0.2591356 -0.07180637 0.8273678
-0.18344983 0.06525713 0.8010523
-0.13154274 0.03855459 0.93458515
-0.17349693 -0.115153156 0.8296152
-0.11666425 -0.03685867 0.75947636
-0.2491104 0.013633165 0.8624943
-0.13191956 -0.0026340517 0.71481365
-0.13764377 0.04361969 0.8121228
0.003991825 0.045523755 0.75268626
-0.08602189 0.0047961907 0.7732501
-0.020652644 0.03628052 0.72338176
0.11013473 0.07421053 0.72612756
-0.32346052 -0.075797215 0.83789396
-0.026027635 -0.025147002 0.6912668
-0.15987197 0.03711713 0.75418735
-0.20288844 0.084209226 0.83300024
-0.14343858 -0.016644072 0.95099974
0.08881213 -0.0007969993 0.6801619
-0.20376989 0.015336592 0.75858426
-0.16411981 0.07444841 0.8934019
-0.20118864 -0.0016517702 0.786758
-0.16441761 -0.08878753 0.7976527
-0.15486826 -0.024842571 0.7078593
-0.09035226 -0.0035635054 0.7165955
-0.2833672 -0.04007951 0.79699254
0.0051713795 0.020679086 0.6832066
-0.03958834 -0.024806425 0.7215966
-0.18260944 -0.09896669 0.7541171
-0.27720183 0.03587022 0.9183007
-0.084698536 0.018604 1.027362
0.12351709 0.0104299085 0.6977832
-0.0430774 -0.038599927 0.7303951
-0.22626244 -0.057540916 0.77702194
-0.12576814 0.033007484 0.8315554
-0.1554991 0.09046585 0.88260365
0.016226916 0.030691367 0.6863214
-0.18044099 0.047119364 0.7994863
-0.11602588 0.05145963 0.84124947
-0.31552815 -0.011142073 0.81173503
-0.005986795 0.047647078 0.6647531
-0.062171645 -0.031219032 0.74250656
0.013591596 0.0041123508 0.704373
0.03692125 -0.023125669 0.7425922
-0.25730908 0.010977142 0.74748904
-0.08176735 -0.039113693 0.73425555
-0.2298018 0.0049021235 0.8009485
-0.22384073 0.018271113 0.8289311
-0.26835114 0.049629048 0.86519456
-0.011054355 0.06725888 0.7677871
-0.0086340355 -0.03823594 0.70608026
-0.28296563 -0.07981866 0.8327802
-0.06497589 -0.056890827 0.7387246
0.12728152 0.06405357 0.68729943
-0.2172425 -0.096226536 0.8309083
-0.044652954 0.015897086 0.83128214
-0.055484552 0.043457143 0.9352395
-0.17831741 -0.023177618 0.7107659
-0.16767488 -0.0055486057 0.6967514
-0.040125884 0.060122583 0.7470114
-0.32829309 -0.021312818 0.87735015
-0.27223828 -0.056882404 0.8514026
-0.21476592 -0.029865498 0.79409236
0.013842834 -0.01427599 0.681416
-0.21618266 0.049092703 0.83649397
0.09717174 0.015415823 0.7227096
-0.052327815 0.04053493 0.6702159
-0.16362464 0.059002157 0.86507124
0.0079451855 0.03613967 0.74707854
-0.169685 0.10238074 0.9906172
0.008956975 -0.015569347 0.67607456
-0.31809315 0.05458259 0.85494846
0.032995366 -0.015432289 0.67001414
0.03321053 0.047875807 0.7080988
-0.06201982 -0.01557069 0.73631626
-0.22010194 0.025352694 0.75595355
-0.16424087 -0.08270497 0.80137134
-0.010170653 0.045762476 0.7368912
-0.23017815 -0.06079475 0.8194566
-0.18636882 -0.05847171 0.8157144
-0.13441671 0.05391538 0.78983814
0.06748506 0.013137388 0.70998603
-0.2604666 -0.04820631 0.84738034
-0.20797214 -0.028356116 0.76495415
-0.12266672 -0.03971586 0.7277173
-0.26120138 -0.025776036 0.85301644
0.118016906 0.013533061 0.72234213
-0.21941836 0.04642795 0.7235091
-0.11404108 -0.064827204 0.75210446
0.026204271 -0.0037216833 0.7007322
-0.25994024 -0.07085658 0.83305955
-0.2998323 -0.011663549 0.810129
-0.19464362 0.010678488 0.7140055
-0.143992 0.10832294 0.6295217
-0.22158475 0.04282006 0.72185624
-0.20692784 0.058969956 0.78064543
-0.2856794 -0.07103714 0.86711085
-0.005542049 0.047517136 0.7073525
-0.27709424 0.0587727 0.98899895
0.05642906 0.023628907 0.7304738
-0.21063864 0.0422938 0.7819479
0.103471726 0.03521692 0.70478886
-0.22032791 -0.010701154 0.733845
-0.2468302 -0.0109096635 0.795569
-0.015448046 0.052858144 0.7527156
-0.108872324 -0.006704645 0.6776319
-0.24583104 -0.011451406 0.7810185
-0.14182527 0.040086307 0.8533098
-0.12816496 -0.10980995 0.7843235
0.022379672 0.050917916 0.71832305
-0.16389233 -0.007374096 0.91371536
-0.031081606 0.04892008 0.71694285
-0.16068324 0.08027351 0.794172
-0.08260814 0.005198232 0.6750591
0.026838074 0.009860634 0.6899763
-0.33488953 -0.023421416 0.78232545
-0.26687354 0.0011257888 0.7790837
0.13964623 -0.025678862 0.7131577
-0.27421358 -0.0906996 0.8390078
-0.26382875 -0.06260762 0.84338284
-0.17025496 -0.08548135 0.8278078
-0.02371913 -0.03257153 0.74418855
-0.014864674 0.025652368 0.6517032
-0.2595899 -0.02804062 0.76503223
0.047765777 0.025610922 0.84500647
-0.17176756 -0.056548476 0.8090756
0.09965246 0.012975256 0.6455009
0.016715078 0.040451445 0.7726018
-0.16842096 0.08315775 0.93046474
-0.06542555 0.028788278 0.7052958
-0.23087382 0.07933752 0.87290883
-0.20859212 0.088765465 0.9055314
-0.2278427 -0.048919845 0.87389296
-0.21790144 0.10043212 0.93296665
0.0052917465 0.04056045 0.71682125
-0.0540181 0.034513004 0.6735647
0.08436003 0.04080211 0.5985506
-0.04237285 -0.03225936 0.74523836
-0.29756287 0.05461432 0.85796446
-0.0062142266 0.10288544 0.7252294
-0.13672711 -0.12157271 0.8463289
-0.26063234 -0.00034501217 0.92179495
-0.20248969 0.040433586 0.7919871
-0.2506693 -0.016359806 0.8401773
-0.07883951 0.015005661 0.69480073
-0.1251856 -0.070583716 0.7438344
-0.17340168 -0.06257127 0.7718333
0.00080659566 -0.03975933 0.7521023
-0.0055166194 -0.01785974 0.7894488
-0.24197976 -0.05467767 0.7615972
-0.17022908 0.044556234 0.8332933
-0.09695294 0.10342513 0.8506615
0.08633929 -0.042996168 0.6830208
-0.31594855 -0.04194489 0.8354023
-0.10440567 0.002379159 0.7670763
-0.010496055 0.013852437 0.6769569
-0.08283116 -0.02870034 0.75558233
0.005010574 -0.035909556 0.6997516
-0.27897584 -0.024493553 0.80614305
-0.32348284 0.0028086356 0.8444673
-0.21267083 -0.0677431 0.8134424
-0.03591512 -0.09162438 0.71405226
-0.07436788 0.011998012 0.7176915
-0.060693044 -0.0023561232 0.69289047
-0.31246656 -0.022900421 0.87141085
-0.28292927 -0.024315968 0.74400663
-0.21379568 0.05575392 0.82020175
-0.1313914 0.016772142 0.7868924
0.030392177 -0.007171712 0.70405495
0.08879242 -0.0459137 0.7100014
-0.17607144 -0.0038362597 0.82958794
-0.18387349 0.015551759 0.73003256
-0.010887969 0.027033623 0.7379842
0.06807939 0.04087664 0.73158425
-0.25484452 0.085829854 0.98865265
-0.21156642 -0.07443399 0.8473506
-0.145204 0.02842071 0.78828156
0.09103383 0.026650457 0.7328138
-0.2753526 -0.051822342 0.8242793
-0.056904618 0.00075299013 0.86137396
-0.026675671 0.09054689 0.6764075
-0.008630957 -0.025369687 0.65362686
-0.10212907 0.061407812 0.78875095
-0.20705636 -0.016795186 0.79199
-0.15410201 -0.1070145 0.8853544
-0.16645789 -0.102128275 0.8522634
-0.036654387 0.042432267 0.67456466
-0.11467469 0.022334274 0.7429805
-0.19000736 0.05837349 0.75670594
0.011562668 0.012052044 0.7493635
-0.23137628 0.03081387 0.7821368
-0.23105983 0.039304435 0.78569174
-0.057527896 -0.05638497 0.7051076
0.055662196 0.037558693 0.7731927
0.10094621 -0.009395606 0.6816145
-0.13985771 -0.04397699 0.78158313
-0.18950628 -0.10484498 0.7975808
-0.22560135 0.02193251 0.77524066
-0.076259434 0.06914038 0.7006745
-0.029240295 0.060475193 0.69448745
0.0051371753 -0.016935756 0.63389754
-0.25514677 -0.003303468 0.8036033
-0.3170557 -0.05185516 0.78830534
-0.29100803 -0.022761907 0.81167614
-0.21423411 -0.02855743 0.7771118
-0.051712617 -0.037992347 0.92175466
-0.2623529 0.057617716 0.78089416
0.013787539 0.06030484 0.8212902
0.09580495 0.012010135 0.8672745
-0.13766813 0.058207124 0.8625716
0.1412607 -0.029088732 0.6634571
0.15890384 -0.0015794492 0.72043955
0.037706774 -0.014850368 0.7034876
-0.19444147 0.016129803 0.72226423
-0.14472318 0.11628099 0.87682927
0.087145425 0.057817783 0.73770493
-0.20022145 0.024078071 0.7914735
-0.2174036 0.06970148 0.76082206
-0.19134015 -0.05684056 0.8272745
-0.12468242 0.07353205 0.94421214
0.07451779 0.021948658 0.8198223
0.06394104 0.0095490385 0.6993046
-0.28348345 0.023192575 0.8657122
-0.18417391 -0.12535958 0.81022966
-0.0026291409 0.09796943 0.6735377
-0.09845344 0.06548338 0.8600741
-0.19855471 0.076044545 0.95883936
0.019550305 0.05386821 0.7423182
-0.04940709 0.088768765 0.6520644
0.057351336 0.03743589 0.8289411
-0.19691755 -0.085586146 0.78525347
-0.15647554 -0.044162672 0.7734329
-0.06884625 0.05835528 0.8651803
-0.2032996 0.08884542 0.8410713
-0.14512958 0.11905737 0.94063365
-0.20818521 0.011455098 0.76893485
0.076040596 0.06302579 0.7218558
0.022800134 0.029720336 0.73022753
-0.32568574 0.022926 0.93540525
-0.15714307 0.027780438 0.7837154
-0.03137256 0.034187023 0.7582172
-0.15258026 -0.0047833417 0.75447345
-0.1336001 -0.012734186 0.69150156
0.12090366 -0.013079155 0.6594475
-0.21671976 -0.057297993 0.78640014
-0.1745095 0.042954076 0.99542576
-0.11378408 0.055227265 0.872893
-0.23200221 -0.03926635 0.8183589
-0.30720076 0.017151767 0.89823407
-0.20903781 0.048963137 0.9392781
0.038389906 0.016965829 0.8429215
0.033121713 0.048097663 0.7455279
0.07378686 0.01918522 0.7466076
-0.18239532 -0.007261867 0.773085
-0.05443947 0.078053325 0.67903554
-0.1997345 -0.06766199 0.79083794
-0.2338676 -0.012852704 0.7690487
-0.2618378 0.032009125 0.8112963
0.022892606 -0.013733946 0.7568758
-0.28944993 -0.036676142 0.7574127
-0.10044892 -0.033924278 0.72637886
-0.18789576 0.058265824 0.8806396
-0.18715459 -0.03813559 0.72251046
